VERSION 0.7
FIELDS x y z rgba
SIZE 4 4 4 4
TYPE F F F U
COUNT 1 1 1 1
WIDTH 1584
HEIGHT 1
VIWPOINT 0 0 0 1 0 0 0
DATA ascii
-7.67586 32.5129 -71.5 16711680
-7.67586 32.5129 -70.5 16711680
-7.67586 32.5129 -69.5 16711680
-7.67586 32.5129 -68.5 16711680
-7.67586 32.5129 -67.5 16711680
-7.67586 32.5129 -66.5 16711680
-7.67586 32.5129 -65.5 16711680
-7.67586 32.5129 -64.5 16711680
-7.67586 32.5129 -63.5 16711680
-7.67586 32.5129 -62.5 16711680
-7.67586 32.5129 -61.5 16711680
-7.67586 32.5129 -60.5 16711680
-7.67586 32.5129 -59.5 16711680
-7.67586 32.5129 -58.5 16711680
-7.67586 32.5129 -57.5 16711680
-7.67586 32.5129 -56.5 16711680
-7.67586 32.5129 -55.5 16711680
-7.67586 32.5129 -54.5 16711680
-7.67586 32.5129 -53.5 16711680
-7.67586 32.5129 -52.5 16711680
-7.67586 32.5129 -51.5 16711680
-7.67586 32.5129 -50.5 16711680
-7.67586 32.5129 -49.5 16711680
-7.67586 32.5129 -48.5 16711680
-7.67586 32.5129 -47.5 16711680
-7.67586 32.5129 -46.5 16711680
-7.67586 32.5129 -45.5 16711680
-7.67586 32.5129 -44.5 16711680
-7.67586 32.5129 -43.5 16711680
-7.67586 32.5129 -42.5 16711680
-7.67586 32.5129 -41.5 16711680
-7.67586 32.5129 -40.5 16711680
-7.67586 32.5129 -39.5 16711680
-7.67586 32.5129 -38.5 16711680
-7.67586 32.5129 -37.5 16711680
-7.67061 -6.83056 2.328 16711680
-7.64408 32.5261 -36.5 16711680
-7.6123 32.5393 -35.5 16711680
-7.59211 6.50844 25.2992 16711680
-7.59211 6.50844 26.2792 16711680
-7.59211 6.50844 27.2592 16711680
-7.59211 6.50844 28.2392 16711680
-7.59211 6.50844 29.2192 16711680
-7.59211 6.50844 30.1992 16711680
-7.59211 6.50844 31.1792 16711680
-7.59211 6.50844 32.1592 16711680
-7.59211 6.50844 33.1392 16711680
-7.59211 6.50844 34.1192 16711680
-7.59211 6.50844 35.0992 16711680
-7.59211 6.50844 36.0792 16711680
-7.59211 6.50844 37.0592 16711680
-7.59211 6.50844 38.0392 16711680
-7.59211 6.50844 39.0192 16711680
-7.58052 32.5524 -34.5 16711680
-7.56436 7.08704 23.5364 16711680
-7.54874 32.5656 -33.5 16711680
-7.54759 -7.12754 1.364 16711680
-7.52019 6.57314 40.0111 16711680
-7.51696 32.5788 -32.5 16711680
-7.48518 32.5919 -31.5 16711680
-7.464 32.6007 -1.5 16711680
-7.4534 32.6051 -30.5 16711680
-7.44281 32.6095 -0.5 16711680
-7.42457 7.42452 24.5 16711680
-7.42457 7.42452 24.5 16711680
-7.42457 7.42453 23.4958 16711680
-7.42457 7.42453 22.4917 16711680
-7.42457 7.42453 21.4875 16711680
-7.42456 7.42453 20.4833 16711680
-7.42456 7.42453 19.4792 16711680
-7.42456 7.42454 18.475 16711680
-7.42456 7.42454 17.4708 16711680
-7.42456 7.42454 16.4667 16711680
-7.42455 7.42454 15.4625 16711680
-7.42455 7.42454 14.4583 16711680
-7.42455 7.42455 13.4542 16711680
-7.42455 7.42455 12.45 16711680
-7.42454 7.42455 11.004 16711680
-7.42454 7.42455 10.04 16711680
-7.42454 7.42455 9.076 16711680
-7.42454 7.42456 8.112 16711680
-7.42454 7.42456 7.148 16711680
-7.42453 7.42456 6.184 16711680
-7.42453 7.42456 5.22 16711680
-7.42453 7.42456 4.256 16711680
-7.42453 7.42457 3.292 16711680
-7.42453 7.42457 2.328 16711680
-7.42162 32.6183 -29.5 16711680
-7.38984 32.6314 -28.5 16711680
-7.35806 32.6446 -27.5 16711680
-7.348 -6.51761 40.1772 16711680
-7.34621 -6.53736 25.1592 16711680
-7.34621 -6.53736 26.2792 16711680
-7.34621 -6.53736 27.3992 16711680
-7.34621 -6.53736 28.5192 16711680
-7.34621 -6.53736 29.6392 16711680
-7.34621 -6.53736 30.7592 16711680
-7.34621 -6.53736 31.8792 16711680
-7.34621 -6.53736 32.9992 16711680
-7.34267 -6.57652 33.9992 16711680
-7.33913 -6.61569 34.9992 16711680
-7.33559 -6.65485 35.9992 16711680
-7.33205 -6.69401 36.9992 16711680
-7.32851 -6.73318 37.9992 16711680
-7.32628 32.6577 -26.5 16711680
-7.32497 -6.77234 38.9992 16711680
-7.32144 -6.8115 39.9992 16711680
-7.2945 32.6709 -25.5 16711680
-7.26638 -6.8702 32.1592 16711680
-7.26638 -6.8702 33.1392 16711680
-7.26638 -6.8702 34.1192 16711680
-7.26638 -6.8702 35.0992 16711680
-7.26638 -6.8702 36.0792 16711680
-7.26638 -6.8702 37.0592 16711680
-7.26638 -6.8702 38.0392 16711680
-7.26638 -6.8702 39.0192 16711680
-7.26272 32.6841 -24.5 16711680
-7.24998 6.62647 40.1772 16711680
-7.23094 32.6972 -23.5 16711680
-7.2307 6.63027 39.1653 16711680
-7.21142 6.63408 38.1534 16711680
-7.19916 32.7104 -22.5 16711680
-7.19214 6.63788 37.1416 16711680
-7.17287 6.64169 36.1297 16711680
-7.16738 32.7236 -21.5 16711680
-7.15359 6.64549 35.1178 16711680
-7.1356 32.7367 -20.5 16711680
-7.13431 6.6493 34.106 16711680
-7.13146 -7.54596 17.5237 16711680
-7.13065 -7.5463 18.5252 16711680
-7.12991 -7.5466 19.527 16711680
-7.12924 -7.54688 20.529 16711680
-7.12862 -7.54714 21.5312 16711680
-7.12806 -7.54737 22.5335 16711680
-7.12754 -7.54759 23.536 16711680
-7.12754 7.54759 1.364 16711680
-7.11521 -7.55267 1.40417 16711680
-7.11521 -7.55267 2.40833 16711680
-7.11521 -7.55267 3.4125 16711680
-7.11521 -7.55268 4.41667 16711680
-7.1152 -7.55268 5.42083 16711680
-7.1152 -7.55268 6.425 16711680
-7.1152 -7.55268 7.42917 16711680
-7.1152 -7.55268 8.43333 16711680
-7.1152 -7.55269 9.4375 16711680
-7.11519 -7.55269 10.4417 16711680
-7.11519 -7.55269 11.4458 16711680
-7.11519 -7.55269 12.45 16711680
-7.11519 -7.55269 13.4542 16711680
-7.11519 -7.5527 14.4583 16711680
-7.11518 -7.5527 15.4625 16711680
-7.11518 -7.5527 16.4667 16711680
-7.11503 6.6531 33.0941 16711680
-7.10649 -7.58773 23.5278 16711680
-7.10649 -7.58773 24.1944 16711680
-7.10382 32.7499 -19.5 16711680
-7.09575 6.6569 32.0822 16711680
-7.07648 6.66071 31.0704 16711680
-7.07204 32.7631 -18.5 16711680
-7.0572 6.66451 30.0585 16711680
-7.04994 -11.2722 0 16711680
-7.04994 32.2722 0 16711680
-7.04026 32.7762 -17.5 16711680
-7.03796 6.66831 26.9992 16711680
-7.03792 6.66832 29.0466 16711680
-7.01866 6.67212 27.0111 16711680
-7.01864 6.67212 28.0348 16711680
-7.01197 -6.90975 26.1707 16711680
-7.01147 -6.90983 29.2517 16711680
-7.00848 -11.7894 -89.5 16711680
-7.00848 -11.7894 -88.5 16711680
-7.00848 -11.7894 -87.5 16711680
-7.00848 -11.7894 -85.5 16711680
-7.00848 -11.7894 -79.5 16711680
-7.00848 -11.7894 -77.5 16711680
-7.00848 -11.7894 -75.5 16711680
-7.00848 -11.7894 -73.5 16711680
-7.00848 -11.7894 -72.5 16711680
-7.00848 -11.7894 -71.5 16711680
-7.00848 -11.7894 -70.5 16711680
-7.00848 -11.7894 -69.5 16711680
-7.00848 -11.7894 -68.5 16711680
-7.00848 -11.7894 -67.5 16711680
-7.00848 -11.7894 -66.5 16711680
-7.00848 -11.7894 -65.5 16711680
-7.00848 -11.7894 -64.5 16711680
-7.00848 -11.7894 -63.5 16711680
-7.00848 -11.7894 -62.5 16711680
-7.00848 -11.7894 -61.5 16711680
-7.00848 -11.7894 -60.5 16711680
-7.00848 -11.7894 -59.5 16711680
-7.00848 -11.7894 -58.5 16711680
-7.00848 -11.7894 -57.5 16711680
-7.00848 -11.7894 -56.5 16711680
-7.00848 -11.7894 -55.5 16711680
-7.00848 -11.7894 -54.5 16711680
-7.00848 -11.7894 -53.5 16711680
-7.00848 -11.7894 -52.5 16711680
-7.00848 -11.7894 -51.5 16711680
-7.00848 -11.7894 -50.5 16711680
-7.00848 -11.7894 -49.5 16711680
-7.00848 -11.7894 -48.5 16711680
-7.00848 -11.7894 -47.5 16711680
-7.00848 -11.7894 -46.5 16711680
-7.00848 -11.7894 -45.5 16711680
-7.00848 -11.7894 -44.5 16711680
-7.00848 -11.7894 -43.5 16711680
-7.00848 -11.7894 -42.5 16711680
-7.00848 -11.7894 -41.5 16711680
-7.00848 -11.7894 -40.5 16711680
-7.00848 -11.7894 -39.5 16711680
-7.00848 -11.7894 -38.5 16711680
-7.00848 -11.7894 -37.5 16711680
-7.00848 -11.7894 -36.5 16711680
-7.00848 -11.7894 -35.5 16711680
-7.00848 -11.7894 -34.5 16711680
-7.00848 -11.7894 -33.5 16711680
-7.00848 -11.7894 -32.5 16711680
-7.00848 -11.7894 -31.5 16711680
-7.00848 -11.7894 -30.5 16711680
-7.00848 -11.7894 -29.5 16711680
-7.00848 -11.7894 -28.5 16711680
-7.00848 -11.7894 -27.5 16711680
-7.00848 -11.7894 -26.5 16711680
-7.00848 -11.7894 -25.5 16711680
-7.00848 -11.7894 -24.5 16711680
-7.00848 -11.7894 -23.5 16711680
-7.00848 -11.7894 -22.5 16711680
-7.00848 -11.7894 -21.5 16711680
-7.00848 -11.7894 -20.5 16711680
-7.00848 -11.7894 -19.5 16711680
-7.00848 -11.7894 -18.5 16711680
-7.00848 -11.7894 -17.5 16711680
-7.00848 -11.7894 -16.5 16711680
-7.00848 -11.7894 -15.5 16711680
-7.00848 -11.7894 -14.5 16711680
-7.00848 -11.7894 -13.5 16711680
-7.00848 -11.7894 -12.5 16711680
-7.00848 -11.7894 -11.5 16711680
-7.00848 -11.7894 -10.5 16711680
-7.00848 -11.7894 -9.5 16711680
-7.00848 -11.7894 -8.5 16711680
-7.00848 -11.7894 -7.5 16711680
-7.00848 -11.7894 -6.5 16711680
-7.00848 -11.7894 -5.5 16711680
-7.00848 -11.7894 -4.5 16711680
-7.00848 -11.7894 -3.5 16711680
-7.00848 -11.7894 -2.5 16711680
-7.00848 -11.7894 -1.5 16711680
-7.00848 -11.7894 -0.5 16711680
-7.00848 -11.7894 -86.5 16711680
-7.00848 -11.7894 -84.5 16711680
-7.00848 -11.7894 -80.5 16711680
-7.00848 -11.7894 -78.5 16711680
-7.00848 -11.7894 -76.5 16711680
-7.00848 -11.7894 -74.5 16711680
-7.00848 32.7894 -89.5 16711680
-7.00848 32.7894 -88.5 16711680
-7.00848 32.7894 -87.5 16711680
-7.00848 32.7894 -86.5 16711680
-7.00848 32.7894 -85.5 16711680
-7.00848 32.7894 -84.5 16711680
-7.00848 32.7894 -83.5 16711680
-7.00848 32.7894 -82.5 16711680
-7.00848 32.7894 -81.5 16711680
-7.00848 32.7894 -80.5 16711680
-7.00848 32.7894 -79.5 16711680
-7.00848 32.7894 -78.5 16711680
-7.00848 32.7894 -77.5 16711680
-7.00848 32.7894 -76.5 16711680
-7.00848 32.7894 -75.5 16711680
-7.00848 32.7894 -74.5 16711680
-7.00848 32.7894 -73.5 16711680
-7.00848 32.7894 -72.5 16711680
-7.00848 32.7894 -71.5 16711680
-7.00848 32.7894 -70.5 16711680
-7.00848 32.7894 -69.5 16711680
-7.00848 32.7894 -68.5 16711680
-7.00848 32.7894 -67.5 16711680
-7.00848 32.7894 -66.5 16711680
-7.00848 32.7894 -65.5 16711680
-7.00848 32.7894 -64.5 16711680
-7.00848 32.7894 -63.5 16711680
-7.00848 32.7894 -62.5 16711680
-7.00848 32.7894 -61.5 16711680
-7.00848 32.7894 -60.5 16711680
-7.00848 32.7894 -59.5 16711680
-7.00848 32.7894 -58.5 16711680
-7.00848 32.7894 -57.5 16711680
-7.00848 32.7894 -56.5 16711680
-7.00848 32.7894 -55.5 16711680
-7.00848 32.7894 -54.5 16711680
-7.00848 32.7894 -53.5 16711680
-7.00848 32.7894 -52.5 16711680
-7.00848 32.7894 -51.5 16711680
-7.00848 32.7894 -50.5 16711680
-7.00848 32.7894 -49.5 16711680
-7.00848 32.7894 -48.5 16711680
-7.00848 32.7894 -47.5 16711680
-7.00848 32.7894 -46.5 16711680
-7.00848 32.7894 -45.5 16711680
-7.00848 32.7894 -44.5 16711680
-7.00848 32.7894 -43.5 16711680
-7.00848 32.7894 -42.5 16711680
-7.00848 32.7894 -41.5 16711680
-7.00848 32.7894 -40.5 16711680
-7.00848 32.7894 -39.5 16711680
-7.00848 32.7894 -38.5 16711680
-7.00848 32.7894 -37.5 16711680
-7.00848 32.7894 -36.5 16711680
-7.00848 32.7894 -35.5 16711680
-7.00848 32.7894 -34.5 16711680
-7.00848 32.7894 -33.5 16711680
-7.00848 32.7894 -32.5 16711680
-7.00848 32.7894 -31.5 16711680
-7.00848 32.7894 -30.5 16711680
-7.00848 32.7894 -29.5 16711680
-7.00848 32.7894 -28.5 16711680
-7.00848 32.7894 -27.5 16711680
-7.00848 32.7894 -26.5 16711680
-7.00848 32.7894 -25.5 16711680
-7.00848 32.7894 -24.5 16711680
-7.00848 32.7894 -23.5 16711680
-7.00848 32.7894 -22.5 16711680
-7.00848 32.7894 -21.5 16711680
-7.00848 32.7894 -20.5 16711680
-7.00848 32.7894 -19.5 16711680
-7.00848 32.7894 -18.5 16711680
-7.00848 32.7894 -17.5 16711680
-7.00848 32.7894 -16.5 16711680
-7.00848 -11.7894 -83.5 16711680
-7.00848 -11.7894 -81.5 16711680
-7.00848 -11.7894 -82.5 16711680
-7.00628 -6.91064 27.1943 16711680
-7.00578 -6.91071 30.2753 16711680
-7.00284 31.7767 -15.2918 16711680
-7.00284 31.7767 -14.2847 16711680
-7.00284 31.7767 -13.2776 16711680
-7.00284 31.7767 -12.2706 16711680
-7.00284 31.7767 -11.2635 16711680
-7.00284 31.7767 -10.2565 16711680
-7.00284 31.7767 -9.24941 16711680
-7.00284 31.7767 -8.24235 16711680
-7.00284 31.7767 -7.23529 16711680
-7.00284 31.7767 -6.22824 16711680
-7.00214 6.67538 25.0206 16711680
-7.0011 -6.91144 25.1372 16711680
-7.00058 -6.91152 28.2179 16711680
-7.00008 -6.9116 31.2989 16711680
-6.9767 32.8025 -15.5 16711680
-6.94492 32.8157 -14.5 16711680
-6.91314 32.8289 -13.5 16711680
-6.88136 32.842 -12.5 16711680
-6.84958 32.8552 -11.5 16711680
-6.83056 7.67061 2.328 16711680
-6.8178 32.8684 -10.5 16711680
-6.78602 32.8815 -9.5 16711680
-6.75424 32.8947 -8.5 16711680
-6.72246 32.9079 -7.5 16711680
-6.69097 11.3907 -90.5 16711680
-6.69068 32.921 -6.5 16711680
-6.6589 32.9342 -5.5 16711680
-6.62712 32.9473 -4.5 16711680
-6.59534 32.9605 -3.5 16711680
-6.57695 -7.50091 25.2792 16711680
-6.57695 -7.50091 26.3346 16711680
-6.57695 -7.50091 27.39 16711680
-6.57695 -7.50091 28.4453 16711680
-6.57695 -7.50091 29.5007 16711680
-6.57695 -7.50091 30.5561 16711680
-6.57695 -7.50091 31.6115 16711680
-6.57695 -7.50091 32.6669 16711680
-6.57695 -7.50091 33.7223 16711680
-6.57695 -7.50091 34.7776 16711680
-6.57695 -7.50091 35.833 16711680
-6.57695 -7.50091 36.8884 16711680
-6.57695 -7.50091 37.9438 16711680
-6.57695 -7.50091 38.9992 16711680
-6.56933 -7.53949 39.9992 16711680
-6.56356 32.9737 -2.5 16711680
-6.54345 6.53802 5.31429 16711680
-6.54324 6.53823 6.27143 16711680
-6.54062 10.2358 -90.5 16711680
-6.53358 7.79362 3.292 16711680
-6.50844 -7.59211 38.0392 16711680
-6.50844 -7.59211 39.0192 16711680
-6.5 33 -1.5 16711680
-6.5 -12 -89.5 16711680
-6.5 -12 -88.5 16711680
-6.5 -12 -87.5 16711680
-6.5 -12 -86.5 16711680
-6.5 -12 -85.5 16711680
-6.5 -12 -84.5 16711680
-6.5 -12 -83.5 16711680
-6.5 -12 -82.5 16711680
-6.5 -12 -81.5 16711680
-6.5 -12 -80.5 16711680
-6.5 -12 -79.5 16711680
-6.5 -12 -78.5 16711680
-6.5 -12 -77.5 16711680
-6.5 -12 -76.5 16711680
-6.5 -12 -75.5 16711680
-6.5 -12 -74.5 16711680
-6.5 -12 -73.5 16711680
-6.5 -12 -72.5 16711680
-6.5 -12 -71.5 16711680
-6.5 -12 -70.5 16711680
-6.5 -12 -69.5 16711680
-6.5 -12 -68.5 16711680
-6.5 -12 -67.5 16711680
-6.5 -12 -66.5 16711680
-6.5 -12 -65.5 16711680
-6.5 -12 -64.5 16711680
-6.5 -12 -63.5 16711680
-6.5 -12 -62.5 16711680
-6.5 -12 -61.5 16711680
-6.5 -12 -60.5 16711680
-6.5 -12 -59.5 16711680
-6.5 -12 -58.5 16711680
-6.5 -12 -57.5 16711680
-6.5 -12 -56.5 16711680
-6.5 -12 -55.5 16711680
-6.5 -12 -54.5 16711680
-6.5 -12 -53.5 16711680
-6.5 -12 -52.5 16711680
-6.5 -12 -51.5 16711680
-6.5 -12 -50.5 16711680
-6.5 -12 -49.5 16711680
-6.5 -12 -48.5 16711680
-6.5 -12 -47.5 16711680
-6.5 -12 -46.5 16711680
-6.5 -12 -45.5 16711680
-6.5 -12 -44.5 16711680
-6.5 -12 -43.5 16711680
-6.5 -12 -42.5 16711680
-6.5 -12 -41.5 16711680
-6.5 -12 -40.5 16711680
-6.5 -12 -39.5 16711680
-6.5 -12 -38.5 16711680
-6.5 -12 -37.5 16711680
-6.5 -12 -36.5 16711680
-6.5 -12 -35.5 16711680
-6.5 -12 -34.5 16711680
-6.5 -12 -33.5 16711680
-6.5 -12 -32.5 16711680
-6.5 -12 -31.5 16711680
-6.5 -12 -30.5 16711680
-6.5 -12 -29.5 16711680
-6.5 -12 -28.5 16711680
-6.5 -12 -27.5 16711680
-6.5 -12 -26.5 16711680
-6.5 -12 -25.5 16711680
-6.5 -12 -24.5 16711680
-6.5 -12 -23.5 16711680
-6.5 -12 -22.5 16711680
-6.5 -12 -21.5 16711680
-6.5 -12 -20.5 16711680
-6.5 -12 -19.5 16711680
-6.5 -12 -18.5 16711680
-6.5 -12 -17.5 16711680
-6.5 -12 -16.5 16711680
-6.5 -12 -15.5 16711680
-6.5 -12 -14.5 16711680
-6.5 -12 -13.5 16711680
-6.5 -12 -12.5 16711680
-6.5 -12 -11.5 16711680
-6.5 -12 -10.5 16711680
-6.5 -12 -9.5 16711680
-6.5 -12 -8.5 16711680
-6.5 -12 -7.5 16711680
-6.5 -12 -6.5 16711680
-6.5 -12 -5.5 16711680
-6.5 -12 -4.5 16711680
-6.5 -12 -3.5 16711680
-6.5 -12 -2.5 16711680
-6.5 -12 -1.5 16711680
-6.5 -12 -0.5 16711680
-6.5 -11.5 0 16711680
-6.5 32.5 0 16711680
-6.5 33 -89.5 16711680
-6.5 33 -88.5 16711680
-6.5 33 -87.5 16711680
-6.5 33 -86.5 16711680
-6.5 33 -85.5 16711680
-6.5 33 -84.5 16711680
-6.5 33 -83.5 16711680
-6.5 33 -82.5 16711680
-6.5 33 -81.5 16711680
-6.5 33 -80.5 16711680
-6.5 33 -79.5 16711680
-6.5 33 -78.5 16711680
-6.5 33 -77.5 16711680
-6.5 33 -76.5 16711680
-6.5 33 -75.5 16711680
-6.5 33 -74.5 16711680
-6.5 33 -73.5 16711680
-6.5 33 -72.5 16711680
-6.5 33 -71.5 16711680
-6.5 33 -70.5 16711680
-6.5 33 -69.5 16711680
-6.5 33 -68.5 16711680
-6.5 33 -67.5 16711680
-6.5 33 -66.5 16711680
-6.5 33 -65.5 16711680
-6.5 33 -64.5 16711680
-6.5 33 -63.5 16711680
-6.5 33 -62.5 16711680
-6.5 33 -61.5 16711680
-6.5 33 -60.5 16711680
-6.5 33 -59.5 16711680
-6.5 33 -58.5 16711680
-6.5 33 -57.5 16711680
-6.5 33 -56.5 16711680
-6.5 33 -55.5 16711680
-6.5 33 -54.5 16711680
-6.5 33 -53.5 16711680
-6.5 33 -52.5 16711680
-6.5 33 -51.5 16711680
-6.5 33 -50.5 16711680
-6.5 33 -49.5 16711680
-6.5 33 -48.5 16711680
-6.5 33 -47.5 16711680
-6.5 33 -46.5 16711680
-6.5 33 -45.5 16711680
-6.5 33 -44.5 16711680
-6.5 33 -43.5 16711680
-6.5 33 -42.5 16711680
-6.5 33 -41.5 16711680
-6.5 33 -40.5 16711680
-6.5 33 -39.5 16711680
-6.5 33 -38.5 16711680
-6.5 33 -37.5 16711680
-6.5 33 -36.5 16711680
-6.5 33 -35.5 16711680
-6.5 33 -34.5 16711680
-6.5 33 -33.5 16711680
-6.5 33 -32.5 16711680
-6.5 33 -31.5 16711680
-6.5 33 -30.5 16711680
-6.5 33 -29.5 16711680
-6.5 33 -28.5 16711680
-6.5 33 -27.5 16711680
-6.5 33 -26.5 16711680
-6.5 33 -25.5 16711680
-6.5 33 -24.5 16711680
-6.5 33 -23.5 16711680
-6.5 33 -22.5 16711680
-6.5 33 -21.5 16711680
-6.5 33 -20.5 16711680
-6.5 33 -19.5 16711680
-6.5 33 -18.5 16711680
-6.5 33 -17.5 16711680
-6.5 33 -16.5 16711680
-6.5 33 -15.5 16711680
-6.5 33 -14.5 16711680
-6.5 33 -13.5 16711680
-6.5 33 -12.5 16711680
-6.5 33 -11.5 16711680
-6.5 33 -10.5 16711680
-6.5 33 -9.5 16711680
-6.5 33 -8.5 16711680
-6.5 33 -7.5 16711680
-6.5 33 -6.5 16711680
-6.5 33 -5.5 16711680
-6.5 33 -4.5 16711680
-6.5 33 -3.5 16711680
-6.5 33 -2.5 16711680
-6.5 33 -0.5 16711680
-6.4965 7.80896 24.5 16711680
-6.49646 -7.809 24.025 16711680
-6.49119 7.81116 21.608 16711680
-6.48411 7.8141 18.716 16711680
-6.47421 7.8182 15.824 16711680
-6.47044 -7.91405 22.5833 16711680
-6.45935 7.82436 12.932 16711680
-6.44877 7.82873 22.572 16711680
-6.43462 7.8346 19.68 16711680
-6.4346 7.83462 10.04 16711680
-6.41481 7.8428 16.788 16711680
-6.40634 7.8463 23.536 16711680
-6.39027 9.08085 -90.5 16711680
-6.38512 7.8551 20.644 16711680
-6.38511 7.85511 13.896 16711680
-6.3851 7.85513 7.148 16711680
-6.35542 7.86741 17.752 16711680
-6.33561 7.87562 11.004 16711680
-6.31087 7.88586 14.86 16711680
-6.25224 -7.91015 14.6697 16711680
-6.24898 -7.9115 15.6633 16711680
-6.24604 -7.91273 16.6579 16711680
-6.24371 12.4661 -90.5 16711680
-6.24336 -7.91384 17.6534 16711680
-6.24288 12.4723 -90.1667 16711680
-6.24091 -7.91485 18.6496 16711680
-6.23991 7.92591 -90.5 16711680
-6.23866 -7.91578 19.6465 16711680
-6.23662 7.91662 11.968 16711680
-6.23661 7.91663 8.112 16711680
-6.2366 7.91664 1.68533 16711680
-6.2366 7.91664 2.97067 16711680
-6.2366 7.91664 4.256 16711680
-6.21371 -7.60671 40.1772 16711680
-6.18942 7.50527 34.2683 16711680
-6.18714 -7.9371 1.40417 16711680
-6.18714 -7.93711 2.40833 16711680
-6.18714 -7.93711 3.4125 16711680
-6.18714 -7.93711 4.41667 16711680
-6.18713 -7.93711 5.42083 16711680
-6.18713 -7.93711 6.425 16711680
-6.18713 -7.93712 7.42917 16711680
-6.18713 -7.93712 8.43333 16711680
-6.18712 -7.93712 9.4375 16711680
-6.18712 -7.93712 10.4417 16711680
-6.18712 -7.93712 11.4458 16711680
-6.18712 -7.93713 12.45 16711680
-6.18712 -7.93713 13.4542 16711680
-6.18378 7.52657 36.3359 16711680
-6.18365 7.52707 33.2548 16711680
-6.17788 7.54886 32.2414 16711680
-6.17525 -2.02887 42.9992 16711680
-6.17371 7.56459 35.3325 16711680
-6.17211 7.57065 31.2279 16711680
-6.16633 7.59244 30.2144 16711680
-6.16056 7.61423 29.2009 16711680
-6.15479 7.63602 28.1875 16711680
-6.15241 -8.07722 20.6111 16711680
-6.15241 -8.07722 21.9444 16711680
-6.15241 -8.07722 23.2778 16711680
-6.14902 7.65781 27.174 16711680
-6.14858 7.65945 40.1772 16711680
-6.14742 -2.01973 43.0699 16711680
-6.14325 7.6796 26.1605 16711680
-6.13747 7.7014 25.147 16711680
-6.11951 9.19254 -91.2071 16711680
-6.1 -4.44089e-16 42.4992 16711680
-6.1 0 41.0706 16711680
-6.1 0 42.4992 16711680
-6.1 0 43.3992 16711680
-6.1 0 44.1325 16711680
-6.1 4.44089e-16 43.3992 16711680
-6.08812 7.97814 9.076 16711680
-6.08173 -0.788672 42.9992 16711680
-6.07303 7.94471 37.0592 16711680
-6.07303 7.94471 38.0392 16711680
-6.07303 7.94471 39.0192 16711680
-6.02268 -7.61617 25.009 16711680
-6.01632 -7.61649 29.1122 16711680
-6.01574 -7.61652 32.1921 16711680
-6.01516 -7.61655 35.2719 16711680
-6.01113 -7.61675 27.0557 16711680
-6.01055 -7.61678 30.1356 16711680
-6.00996 -7.6168 33.2154 16711680
-6.00938 -7.61683 36.2953 16711680
-6.00889 7.99332 25.2992 16711680
-6.00889 7.99332 26.3492 16711680
-6.00889 7.99332 27.3992 16711680
-6.00889 7.99332 28.4492 16711680
-6.00889 7.99332 29.4992 16711680
-6.00889 7.99332 30.5492 16711680
-6.00889 7.99332 31.5992 16711680
-6.00889 7.99332 32.6492 16711680
-6.00889 7.99332 33.6992 16711680
-6.00889 7.99332 34.7492 16711680
-6.00889 7.99332 35.7992 16711680
-6.00889 7.99332 36.8492 16711680
-6.00889 7.99332 37.8992 16711680
-6.00889 7.99332 38.9492 16711680
-6.00889 7.99332 39.9992 16711680
-6.00535 -7.61703 28.079 16711680
-6.00477 -7.61706 31.1589 16711680
-6.00419 -7.61709 34.2388 16711680
-6.00363 -7.61712 37.3189 16711680
-6.00016 -7.61729 26.0225 16711680
-5.99469 -10.8 -68.6659 16711680
-5.99469 -10.8 -67.6588 16711680
-5.99469 -10.8 -64.6376 16711680
-5.99469 -10.8 -62.6235 16711680
-5.99469 -10.8 -66.6518 16711680
-5.99469 -10.8 -65.6447 16711680
-5.99469 -10.8 -63.6306 16711680
-5.99248 -0.833779 43.0992 16711680
-5.98876 33 -88.5 16711680
-5.98876 33 -85.5 16711680
-5.98876 33 -58.5 16711680
-5.98876 33 -56.5 16711680
-5.98876 33 -55.5 16711680
-5.98876 33 -54.5 16711680
-5.98876 33 -51.5 16711680
-5.98876 33 -50.5 16711680
-5.98876 33 -48.5 16711680
-5.98876 33 -47.5 16711680
-5.98876 33 -46.5 16711680
-5.98876 33 -45.5 16711680
-5.98876 33 -44.5 16711680
-5.98876 33 -43.5 16711680
-5.98876 33 -42.5 16711680
-5.98876 33 -41.5 16711680
-5.98876 33 -39.5 16711680
-5.98876 33 -38.5 16711680
-5.98876 33 -36.5 16711680
-5.98876 33 -35.5 16711680
-5.98876 33 -23.5 16711680
-5.98876 33 -20.5 16711680
-5.98876 33 -16.5 16711680
-5.98876 -12 -89.5 16711680
-5.98876 -12 -88.5 16711680
-5.98876 -12 -87.5 16711680
-5.98876 -12 -86.5 16711680
-5.98876 -12 -85.5 16711680
-5.98876 -12 -84.5 16711680
-5.98876 -12 -83.5 16711680
-5.98876 -12 -82.5 16711680
-5.98876 33 -89.5 16711680
-5.98876 33 -87.5 16711680
-5.98876 33 -86.5 16711680
-5.98876 33 -84.5 16711680
-5.98876 33 -83.5 16711680
-5.98876 33 -82.5 16711680
-5.98876 33 -81.5 16711680
-5.98876 33 -80.5 16711680
-5.98876 33 -79.5 16711680
-5.98876 33 -78.5 16711680
-5.98876 33 -77.5 16711680
-5.98876 33 -76.5 16711680
-5.98876 33 -75.5 16711680
-5.98876 33 -74.5 16711680
-5.98876 33 -73.5 16711680
-5.98876 33 -72.5 16711680
-5.98876 33 -71.5 16711680
-5.98876 33 -70.5 16711680
-5.98876 33 -69.5 16711680
-5.98876 33 -68.5 16711680
-5.98876 33 -67.5 16711680
-5.98876 33 -66.5 16711680
-5.98876 33 -65.5 16711680
-5.98876 33 -64.5 16711680
-5.98876 33 -63.5 16711680
-5.98876 33 -62.5 16711680
-5.98876 33 -61.5 16711680
-5.98876 33 -60.5 16711680
-5.98876 33 -59.5 16711680
-5.98876 33 -57.5 16711680
-5.98876 33 -53.5 16711680
-5.98876 33 -52.5 16711680
-5.98876 33 -49.5 16711680
-5.98876 33 -40.5 16711680
-5.98876 33 -37.5 16711680
-5.98876 33 -34.5 16711680
-5.98876 33 -33.5 16711680
-5.98876 33 -32.5 16711680
-5.98876 33 -31.5 16711680
-5.98876 33 -30.5 16711680
-5.98876 33 -29.5 16711680
-5.98876 33 -28.5 16711680
-5.98876 33 -27.5 16711680
-5.98876 33 -26.5 16711680
-5.98876 33 -25.5 16711680
-5.98876 33 -24.5 16711680
-5.98876 33 -22.5 16711680
-5.98876 33 -21.5 16711680
-5.98876 33 -19.5 16711680
-5.98876 33 -18.5 16711680
-5.98876 33 -17.5 16711680
-5.98876 33 -15.5 16711680
-5.98876 33 -14.5 16711680
-5.98876 33 -13.5 16711680
-5.98876 33 -12.5 16711680
-5.98876 33 -11.5 16711680
-5.98876 33 -10.5 16711680
-5.98876 33 -9.5 16711680
-5.98876 33 -8.5 16711680
-5.98876 33 -7.5 16711680
-5.96916 8.0376 -91.2071 16711680
-5.96399 0.508034 43.3992 16711680
-5.96327 -0.50924 44.3159 16711680
-5.93962 8.03966 5.22 16711680
-5.93592 0.611088 42.4992 16711680
-5.93592 0.611088 41.4992 16711680
-5.91573 -12 -81.5 16711680
-5.8947 1.69173 42.9992 16711680
-5.8427 -12 -80.5 16711680
-5.80545 1.64662 43.0992 16711680
-5.80119 2.93193 42.9992 16711680
-5.79645 13.5415 -90.5 16711680
-5.76966 -12 -79.5 16711680
-5.71194 2.88682 43.0992 16711680
-5.70004 11.2568 -91.5 16711680
-5.69663 -12 -78.5 16711680
-5.6792 -8.23084 37.0592 16711680
-5.6792 -8.23084 38.0392 16711680
-5.6792 -8.23084 39.0192 16711680
-5.66431 -0.754666 41.7849 16711680
-5.64264 8.16267 6.184 16711680
-5.6236 -12 -77.5 16711680
-5.61097 6.92634 9.14286 16711680
-5.60776 1.83326 41.4992 16711680
-5.59167 0.880459 44.1325 16711680
-5.56839 -8.19343 23.55 16711680
-5.55782 8.19779 21.608 16711680
-5.55056 -12 -76.5 16711680
-5.54367 8.20366 18.716 16711680
-5.53224 7.00088 -90.5 16711680
-5.52386 8.21186 15.824 16711680
-5.51635 -8.40354 19.6667 16711680
-5.49579 -12 -34.5 16711680
-5.49416 8.22417 12.932 16711680
-5.49213 -12 -20.5 16711680
-5.4897 -12 -6.5 16711680
-5.47753 -12 -75.5 16711680
-5.47753 -12 -61.5 16711680
-5.47753 -12 -47.5 16711680
-5.47753 -12 -33.5 16711680
-5.47753 -12 -19.5 16711680
-5.47753 -12 -5.5 16711680
-5.47297 8.23294 22.572 16711680
-5.46536 -12 -4.5 16711680
-5.46292 -12 -18.5 16711680
-5.45927 -12 -32.5 16711680
-5.45318 -12 -46.5 16711680
-5.45318 -12 -3.5 16711680
-5.44831 -12 -17.5 16711680
-5.44468 8.24466 19.68 16711680
-5.44466 8.24468 10.04 16711680
-5.44101 -12 -60.5 16711680
-5.44101 -12 -31.5 16711680
-5.44101 -12 -2.5 16711680
-5.43371 -12 -16.5 16711680
-5.42884 -12 -45.5 16711680
-5.42884 -12 -1.5 16711680
-5.42275 -12 -30.5 16711680
-5.4191 -12 -15.5 16711680
-5.41667 -12 -0.5 16711680
-5.41667 -11.5 0 16711680
-5.41667 32.5 0 16711680
-5.41667 33 -0.5 16711680
-5.41634 -2.5462 43.5825 16711680
-5.40507 8.26107 16.788 16711680
-5.40449 -12 -74.5 16711680
-5.40449 -12 -59.5 16711680
-5.40449 -12 -44.5 16711680
-5.40449 -12 -29.5 16711680
-5.40449 -12 -14.5 16711680
-5.38989 -12 -13.5 16711680
-5.38812 8.26808 23.536 16711680
-5.38624 -12 -28.5 16711680
-5.38455 -8.21455 40.1772 16711680
-5.38015 -12 -43.5 16711680
-5.37528 -12 -12.5 16711680
-5.36798 -12 -58.5 16711680
-5.36798 -12 -27.5 16711680
-5.36442 -2.97195 42.9992 16711680
-5.36067 -12 -11.5 16711680
-5.35581 -12 -42.5 16711680
-5.35581 33 -1.5 16711680
-5.34972 -12 -26.5 16711680
-5.34919 14.6169 -90.5 16711680
-5.34655 14.6203 -90.1667 16711680
-5.34607 -12 -10.5 16711680
-5.34568 8.28566 20.644 16711680
-5.34567 8.28568 13.896 16711680
-5.34566 8.28569 6.02333 16711680
-5.33146 -12 -73.5 16711680
-5.33146 -12 -57.5 16711680
-5.33146 -12 -41.5 16711680
-5.33146 -12 -25.5 16711680
-5.33146 -12 -9.5 16711680
-5.31685 -12 -8.5 16711680
-5.31609 -2.01168 41.7492 16711680
-5.3132 -12 -24.5 16711680
-5.30712 -12 -40.5 16711680
-5.30225 -12 -7.5 16711680
-5.30098 13.4745 -91 16711680
-5.29494 -12 -56.5 16711680
-5.29494 -12 -23.5 16711680
-5.29494 33 -2.5 16711680
-5.28628 8.31027 17.752 16711680
-5.28392 -3.04821 42.4992 16711680
-5.28277 -12 -39.5 16711680
-5.28047 3.05399 41.4992 16711680
-5.27961 -3.05544 43.3992 16711680
-5.27961 3.05544 42.4992 16711680
-5.27783 -8.52591 22.4375 16711680
-5.27669 -12 -22.5 16711680
-5.25907 -8.32154 1.40417 16711680
-5.25907 -8.32154 2.40833 16711680
-5.25907 -8.32154 3.4125 16711680
-5.25906 -8.32155 4.41667 16711680
-5.25906 -8.32155 5.42083 16711680
-5.25906 -8.32155 6.425 16711680
-5.25906 -8.32155 7.42917 16711680
-5.25906 -8.32155 8.43333 16711680
-5.25905 -8.32156 9.4375 16711680
-5.25843 -12 -72.5 16711680
-5.25843 -12 -55.5 16711680
-5.25843 -12 -38.5 16711680
-5.25843 -12 -21.5 16711680
-5.25278 12.3321 -91.5 16711680
-5.23408 -12 -37.5 16711680
-5.23408 33 -3.5 16711680
-5.22191 -12 -54.5 16711680
-5.20974 -12 -36.5 16711680
-5.20931 8.53599 25.2992 16711680
-5.20931 8.53599 26.2792 16711680
-5.20931 8.53599 27.2592 16711680
-5.20931 8.53599 28.2392 16711680
-5.20931 8.53599 29.2192 16711680
-5.20931 8.53599 30.1992 16711680
-5.20931 8.53599 31.1792 16711680
-5.20931 8.53599 32.1592 16711680
-5.20931 8.53599 33.1392 16711680
-5.20931 8.53599 34.1192 16711680
-5.20931 8.53599 35.0992 16711680
-5.20931 8.53599 36.0792 16711680
-5.20931 8.53599 37.0592 16711680
-5.20931 8.53599 38.0392 16711680
-5.20931 8.53599 39.0192 16711680
-5.20699 -8.53168 17.6625 16711680
-5.20371 -2.53328 41.8325 16711680
-5.19832 -8.5667 17.6944 16711680
-5.19832 -8.5667 18.8611 16711680
-5.19832 -8.5667 20.0278 16711680
-5.19832 -8.5667 21.1944 16711680
-5.19832 -8.5667 22.3611 16711680
-5.19718 8.34719 14.86 16711680
-5.18539 -12 -71.5 16711680
-5.18539 -12 -53.5 16711680
-5.18539 -12 -35.5 16711680
-5.17322 33 -4.5 16711680
-5.15082 -1.67842 44.9992 16711680
-5.14888 -12 -52.5 16711680
-5.14044 8.57764 25.2992 16711680
-5.14044 8.57764 26.3492 16711680
-5.14044 8.57764 27.3992 16711680
-5.14044 8.57764 28.4492 16711680
-5.14044 8.57764 29.4992 16711680
-5.14044 8.57764 30.5492 16711680
-5.14044 8.57764 31.5992 16711680
-5.14044 8.57764 32.6492 16711680
-5.14044 8.57764 33.6992 16711680
-5.14044 8.57764 34.7492 16711680
-5.14044 8.57764 35.7992 16711680
-5.14044 8.57764 36.8492 16711680
-5.14044 8.57764 37.8992 16711680
-5.14044 8.57764 38.9492 16711680
-5.14044 8.57764 39.9992 16711680
-5.12091 8.57529 40.0111 16711680
-5.11236 -12 -70.5 16711680
-5.11236 -12 -51.5 16711680
-5.11236 33 -5.5 16711680
-5.09134 7.45248 -91.3536 16711680
-5.08333 1.76092 44.1325 16711680
-5.07995 -8.39575 10.8645 16711680
-5.07584 -12 -50.5 16711680
-5.07343 -8.39845 11.8475 16711680
-5.06754 -8.40089 12.8325 16711680
-5.06218 -8.40311 13.8193 16711680
-5.05729 -8.40514 14.8076 16711680
-5.05614 -8.27801 24.9992 16711680
-5.0528 -8.407 15.7972 16711680
-5.0516 -8.28861 30.0585 16711680
-5.0515 33 -6.5 16711680
-5.04868 8.4087 11.968 16711680
-5.04868 -8.40871 16.788 16711680
-5.04868 8.40871 1.50171 16711680
-5.04868 8.40871 2.60343 16711680
-5.04868 8.40871 3.70514 16711680
-5.04868 8.40871 4.80686 16711680
-5.04868 8.40871 5.90857 16711680
-5.04868 8.40871 7.01029 16711680
-5.04868 8.40871 8.112 16711680
-5.0456 3.10105 43.2659 16711680
-5.04387 -8.30668 31.0704 16711680
-5.03933 -12 -69.5 16711680
-5.03933 -12 -49.5 16711680
-5.03615 -8.32474 32.0822 16711680
-5.02892 9.84385 -92 16711680
-5.02842 -8.34281 33.0941 16711680
-5.02069 -8.36087 34.106 16711680
-5.01967 8.30017 24.9992 16711680
-5.01296 -8.37894 35.1178 16711680
-5.01291 -8.37904 25.0992 16711680
-5.01291 -8.37904 26.3242 16711680
-5.01291 -8.37904 27.5492 16711680
-5.01291 -8.37904 28.7742 16711680
-5.01291 -8.37904 29.9992 16711680
-5.00523 -8.39701 36.1297 16711680
-5.00281 -12 -48.5 16711680
-5.00109 -2.23789 44.9992 16711680
-4.99732 -8.52426 16.8016 16711680
-4.96629 -12 -89.5 16711680
-4.96629 -12 -88.5 16711680
-4.96629 -12 -87.5 16711680
-4.96629 -12 -86.5 16711680
-4.96629 -12 -85.5 16711680
-4.96629 -12 -84.5 16711680
-4.96629 -12 -83.5 16711680
-4.96629 -12 -82.5 16711680
-4.96629 -12 -81.5 16711680
-4.96629 -12 -80.5 16711680
-4.96629 -12 -79.5 16711680
-4.96629 -12 -78.5 16711680
-4.96629 -12 -77.5 16711680
-4.96629 -12 -76.5 16711680
-4.96629 -12 -75.5 16711680
-4.96629 -12 -74.5 16711680
-4.96629 -12 -73.5 16711680
-4.96629 -12 -72.5 16711680
-4.96629 -12 -71.5 16711680
-4.96629 -12 -70.5 16711680
-4.96629 -12 -69.5 16711680
-4.96629 -12 -68.5 16711680
-4.96629 33 -89.5 16711680
-4.96629 33 -88.5 16711680
-4.96629 33 -86.5 16711680
-4.96629 33 -85.5 16711680
-4.96629 33 -83.5 16711680
-4.96629 33 -82.5 16711680
-4.96629 33 -81.5 16711680
-4.96629 33 -80.5 16711680
-4.96629 33 -79.5 16711680
-4.96629 33 -78.5 16711680
-4.96629 33 -77.5 16711680
-4.96629 33 -76.5 16711680
-4.96629 33 -75.5 16711680
-4.96629 33 -74.5 16711680
-4.96629 33 -73.5 16711680
-4.96629 33 -72.5 16711680
-4.96629 33 -71.5 16711680
-4.96629 33 -70.5 16711680
-4.96629 33 -69.5 16711680
-4.96629 33 -68.5 16711680
-4.96629 33 -67.5 16711680
-4.96629 33 -66.5 16711680
-4.96629 33 -65.5 16711680
-4.96629 33 -64.5 16711680
-4.96629 33 -63.5 16711680
-4.96629 33 -62.5 16711680
-4.96629 33 -61.5 16711680
-4.96629 33 -60.5 16711680
-4.96629 33 -59.5 16711680
-4.96629 33 -58.5 16711680
-4.96629 33 -57.5 16711680
-4.96629 33 -56.5 16711680
-4.96629 33 -55.5 16711680
-4.96629 33 -54.5 16711680
-4.96629 33 -53.5 16711680
-4.96629 33 -52.5 16711680
-4.96629 33 -51.5 16711680
-4.96629 33 -50.5 16711680
-4.96629 33 -49.5 16711680
-4.96629 33 -48.5 16711680
-4.96629 33 -47.5 16711680
-4.96629 33 -46.5 16711680
-4.96629 33 -45.5 16711680
-4.96629 33 -44.5 16711680
-4.96629 33 -43.5 16711680
-4.96629 33 -42.5 16711680
-4.96629 33 -41.5 16711680
-4.96629 33 -40.5 16711680
-4.96629 33 -39.5 16711680
-4.96629 33 -38.5 16711680
-4.96629 33 -37.5 16711680
-4.96629 33 -36.5 16711680
-4.96629 33 -35.5 16711680
-4.96629 33 -34.5 16711680
-4.96629 33 -33.5 16711680
-4.96629 33 -32.5 16711680
-4.96629 33 -31.5 16711680
-4.96629 33 -30.5 16711680
-4.96629 33 -28.5 16711680
-4.96629 33 -27.5 16711680
-4.96629 33 -26.5 16711680
-4.96629 33 -25.5 16711680
-4.96629 33 -24.5 16711680
-4.96629 33 -23.5 16711680
-4.96629 33 -22.5 16711680
-4.96629 33 -21.5 16711680
-4.96629 33 -87.5 16711680
-4.96629 33 -84.5 16711680
-4.96629 33 -29.5 16711680
-4.95724 -8.50916 25.147 16711680
-4.95104 -8.52366 26.2817 16711680
-4.95104 -8.52366 27.3842 16711680
-4.95104 -8.52366 28.4867 16711680
-4.95104 -8.52366 29.5892 16711680
-4.95104 -8.52366 30.6917 16711680
-4.95104 -8.52366 31.7942 16711680
-4.95104 -8.52366 32.8967 16711680
-4.95104 -8.52366 33.9992 16711680
-4.94156 -10.8 -52.5529 16711680
-4.94156 -10.8 -54.5671 16711680
-4.94156 -10.8 -53.56 16711680
-4.94156 -10.8 -51.5459 16711680
-4.94156 -10.8 -50.5388 16711680
-4.94156 -10.8 -49.5318 16711680
-4.94156 -10.8 -48.5247 16711680
-4.94156 -10.8 -37.4471 16711680
-4.94156 -10.8 -36.44 16711680
-4.94156 -10.8 -35.4329 16711680
-4.93557 -8.55981 34.9992 16711680
-4.9201 -8.59596 35.9992 16711680
-4.90463 -8.63211 36.9992 16711680
-4.89326 -12 -67.5 16711680
-4.88916 -8.66827 37.9992 16711680
-4.88029 -8.72986 19.9222 16711680
-4.8737 -8.70442 38.9992 16711680
-4.85823 -8.74057 39.9992 16711680
-4.85811 3.74276 42.9992 16711680
-4.85137 -2.79737 44.9992 16711680
-4.8269 3.64775 43.0992 16711680
-4.82456 6.07584 -90.5 16711680
-4.82022 -12 -66.5 16711680
-4.79101 33 -7.5 16711680
-4.78688 -8.51715 9.91316 16711680
-4.77955 -8.52018 10.8935 16711680
-4.77292 -8.52293 11.8762 16711680
-4.76689 -8.52543 12.8608 16711680
-4.76138 -8.52771 13.8471 16711680
-4.75634 -8.5298 14.8349 16711680
-4.75169 -8.53173 15.824 16711680
-4.75169 8.53173 1.4845 16711680
-4.75169 8.53173 2.569 16711680
-4.75169 8.53173 3.6535 16711680
-4.75169 8.53173 4.738 16711680
-4.75169 8.53173 5.8225 16711680
-4.75169 8.53173 6.907 16711680
-4.75169 8.53173 7.9915 16711680
-4.75169 8.53173 9.076 16711680
-4.74719 -12 -65.5 16711680
-4.73258 33 -8.5 16711680
-4.67416 -12 -64.5 16711680
-4.67416 33 -9.5 16711680
-4.6409 8.51775 24.9992 16711680
-4.64036 -8.57783 1.40417 16711680
-4.64035 -8.57783 2.40833 16711680
-4.64035 -8.57783 3.4125 16711680
-4.64035 -8.57784 4.41667 16711680
-4.64035 -8.57784 5.42083 16711680
-4.64035 -8.57784 6.425 16711680
-4.64034 -8.57784 7.42917 16711680
-4.64034 -8.57784 8.43333 16711680
-4.64033 -8.57786 23.075 16711680
-4.64033 -8.57786 24.5 16711680
-4.62444 8.58442 21.608 16711680
-4.61573 33 -10.5 16711680
-4.60322 8.59322 18.716 16711680
-4.60112 -12 -63.5 16711680
-4.575 2.64138 44.4992 16711680
-4.57352 8.60552 15.824 16711680
-4.56226 -8.89302 16.75 16711680
-4.5573 33 -11.5 16711680
-4.55359 -3.91503 42.9992 16711680
-4.55318 14.0115 -91.5 16711680
-4.53646 -3.79785 43.3992 16711680
-4.53532 3.79534 43.3992 16711680
-4.52897 8.62398 12.932 16711680
-4.52809 -12 -62.5 16711680
-4.50848 -3.82578 43.1724 16711680
-4.49888 33 -12.5 16711680
-4.49717 8.63714 22.572 16711680
-4.4964 -8.73239 40.1772 16711680
-4.49157 -12 -34.5 16711680
-4.48427 -12 -20.5 16711680
-4.4794 -12 -6.5 16711680
-4.45506 -12 -61.5 16711680
-4.45506 -12 -47.5 16711680
-4.45506 -12 -33.5 16711680
-4.45506 -12 -19.5 16711680
-4.45506 -12 -5.5 16711680
-4.45473 8.65472 19.68 16711680
-4.45471 8.65474 8.96889 16711680
-4.45471 8.65474 10.04 16711680
-4.44045 33 -13.5 16711680
-4.43071 -12 -4.5 16711680
-4.42584 -12 -18.5 16711680
-4.42152 15.328 -90.1667 16711680
-4.41854 -12 -32.5 16711680
-4.40637 -12 -46.5 16711680
-4.40637 -12 -3.5 16711680
-4.39663 -12 -17.5 16711680
-4.39533 8.67933 16.788 16711680
-4.38869 3.94488 41.4992 16711680
-4.38801 -3.94338 41.4992 16711680
-4.3856 -3.94476 42.4992 16711680
-4.38202 33 -14.5 16711680
-4.38202 -12 -60.5 16711680
-4.38202 -12 -31.5 16711680
-4.38202 -12 -2.5 16711680
-4.36989 8.68986 23.536 16711680
-4.36742 -12 -16.5 16711680
-4.35768 -12 -45.5 16711680
-4.35768 -12 -1.5 16711680
-4.34551 -12 -30.5 16711680
-4.3382 -12 -15.5 16711680
-4.33333 -12 -0.5 16711680
-4.33333 -11.5 0 16711680
-4.33333 32.5 0 16711680
-4.33333 33 -0.5 16711680
-4.33099 -8.70599 7.42917 16711680
-4.3236 33 -15.5 16711680
-4.31264 -8.92788 22.3517 16711680
-4.30899 -12 -59.5 16711680
-4.30899 -12 -44.5 16711680
-4.30899 -12 -29.5 16711680
-4.30899 -12 -14.5 16711680
-4.30624 8.71623 20.644 16711680
-4.30623 8.71624 13.896 16711680
-4.28464 33 -1.5 16711680
-4.27978 -12 -13.5 16711680
-4.27247 -12 -28.5 16711680
-4.26517 33 -16.5 16711680
-4.2603 -12 -43.5 16711680
-4.25091 -3.62583 44.8325 16711680
-4.25056 -12 -12.5 16711680
-4.24841 3.80013 42.9992 16711680
-4.24423 -9.05618 14.7778 16711680
-4.24423 -9.05618 15.8889 16711680
-4.24423 -9.05618 17 16711680
-4.24423 -9.05618 18.1111 16711680
-4.24423 -9.05618 19.2222 16711680
-4.24423 -9.05618 20.3333 16711680
-4.24423 -9.05618 21.4444 16711680
-4.23596 -12 -58.5 16711680
-4.23596 -12 -27.5 16711680
-4.23596 33 -2.5 16711680
-4.22135 -12 -11.5 16711680
-4.21849 8.75979 -93 16711680
-4.21714 8.75314 17.752 16711680
-4.21568 9.06797 25.2992 16711680
-4.21568 9.06797 26.3492 16711680
-4.21568 9.06797 27.3992 16711680
-4.21568 9.06797 28.4492 16711680
-4.21568 9.06797 29.4992 16711680
-4.21568 9.06797 30.5492 16711680
-4.21568 9.06797 31.5992 16711680
-4.21568 9.06797 32.6492 16711680
-4.21568 9.06797 33.6992 16711680
-4.21568 9.06797 34.7492 16711680
-4.21568 9.06797 35.7992 16711680
-4.21568 9.06797 36.8492 16711680
-4.21568 9.06797 37.8992 16711680
-4.21568 9.06797 38.9492 16711680
-4.21568 9.06797 39.9992 16711680
-4.21352 6.86736 -91.5 16711680
-4.21161 -12 -42.5 16711680
-4.20674 33 -17.5 16711680
-4.19944 -12 -26.5 16711680
-4.1965 9.0636 40.0111 16711680
-4.19213 -12 -10.5 16711680
-4.19177 -8.76365 8.98562 16711680
-4.18727 33 -3.5 16711680
-4.1846 8.77377 -94 16711680
-4.18367 -8.76701 9.96349 16711680
-4.1763 -8.77007 10.9437 16711680
-4.16957 -8.77285 11.9261 16711680
-4.16341 -8.77541 12.9102 16711680
-4.16315 -8.76117 24.9992 16711680
-4.16292 -12 -57.5 16711680
-4.16292 -12 -41.5 16711680
-4.16292 -12 -25.5 16711680
-4.16292 -12 -9.5 16711680
-4.15773 8.77776 1.4604 16711680
-4.15773 8.77776 2.5208 16711680
-4.15773 8.77776 3.5812 16711680
-4.15773 8.77776 4.6416 16711680
-4.15773 8.77776 5.702 16711680
-4.15773 8.77776 6.7624 16711680
-4.15773 8.77776 7.8228 16711680
-4.15773 8.77776 8.8832 16711680
-4.15773 8.77776 9.9436 16711680
-4.15773 8.77776 11.004 16711680
-4.1507 8.78775 -95 16711680
-4.14831 33 -18.5 16711680
-4.13858 33 -4.5 16711680
-4.13371 -12 -8.5 16711680
-4.1264 -12 -24.5 16711680
-4.12457 8.77941 24.9992 16711680
-4.11688 5.15081 -90.5 16711680
-4.1168 8.80173 -96 16711680
-4.11644 5.15047 -90.1667 16711680
-4.11423 -12 -40.5 16711680
-4.10966 -8.85704 35.1178 16711680
-4.10449 -12 -7.5 16711680
-4.10008 -8.87419 36.1297 16711680
-4.09051 -8.89135 37.1416 16711680
-4.08989 -12 -56.5 16711680
-4.08989 -12 -23.5 16711680
-4.08989 33 -19.5 16711680
-4.08989 33 -5.5 16711680
-4.08349 8.80851 14.86 16711680
-4.08291 8.81572 -97 16711680
-4.08093 -8.90851 38.1534 16711680
-4.07701 9.82351 -93 16711680
-4.07135 -8.92567 39.1653 16711680
-4.06667 3.52184 44.1325 16711680
-4.06554 -12 -39.5 16711680
-4.06178 -8.94283 40.1772 16711680
-4.05337 -12 -22.5 16711680
-4.04901 8.8297 -98 16711680
-4.04699 -8.98076 13.837 16711680
-4.0412 33 -6.5 16711680
-4.03146 33 -20.5 16711680
-4.02164 -8.83412 1.40417 16711680
-4.02164 -8.83412 2.40833 16711680
-4.02164 -8.83412 3.4125 16711680
-4.02163 -8.83412 4.41667 16711680
-4.02163 -8.83413 5.42083 16711680
-4.02163 -8.83413 6.425 16711680
-4.01685 -12 -55.5 16711680
-4.01685 -12 -38.5 16711680
-4.01685 -12 -21.5 16711680
-4.01512 8.84368 -99 16711680
-4.01462 11.0344 -107 16711680
-4.01379 -9.02883 25.1992 16711680
-4.01379 -9.02883 26.2881 16711680
-4.01379 -9.02883 27.377 16711680
-4.01379 -9.02883 28.4659 16711680
-4.01379 -9.02883 29.5547 16711680
-4.01379 -9.02883 30.6436 16711680
-4.01379 -9.02883 31.7325 16711680
-4.01379 -9.02883 32.8214 16711680
-4.01379 -9.02883 33.9103 16711680
-4.01379 -9.02883 34.9992 16711680
-4.00943 10.0908 -94 16711680
-4.00449 8.59511 -93 16711680
-3.99005 11.1858 -106 16711680
-3.98901 10.0034 -95 16711680
-3.98122 8.85766 -100 16711680
-3.96945 -10.8 -41.4753 16711680
-3.96945 -10.8 -40.4682 16711680
-3.96945 -10.8 -38.4541 16711680
-3.96945 -10.8 -25.3624 16711680
-3.96945 -10.8 -24.3553 16711680
-3.96945 -10.8 -23.3482 16711680
-3.96945 -10.8 -22.3412 16711680
-3.96945 -10.8 -21.3341 16711680
-3.96945 -10.8 -9.24941 16711680
-3.96945 -10.8 -8.24235 16711680
-3.96945 -10.8 -7.23529 16711680
-3.96945 -10.8 -39.4612 16711680
-3.96859 9.91611 -96 16711680
-3.96816 -12 -37.5 16711680
-3.96548 11.3371 -105 16711680
-3.94817 9.82879 -97 16711680
-3.94732 8.87165 -101 16711680
-3.94382 33 -67.5 16711680
-3.94382 33 -64.5 16711680
-3.94382 -12 -89.5 16711680
-3.94382 -12 -88.5 16711680
-3.94382 -12 -87.5 16711680
-3.94382 -12 -86.5 16711680
-3.94382 -12 -85.5 16711680
-3.94382 -12 -84.5 16711680
-3.94382 -12 -83.5 16711680
-3.94382 -12 -82.5 16711680
-3.94382 -12 -81.5 16711680
-3.94382 -12 -80.5 16711680
-3.94382 -12 -79.5 16711680
-3.94382 -12 -78.5 16711680
-3.94382 -12 -77.5 16711680
-3.94382 -12 -76.5 16711680
-3.94382 -12 -75.5 16711680
-3.94382 -12 -74.5 16711680
-3.94382 -12 -73.5 16711680
-3.94382 -12 -72.5 16711680
-3.94382 -12 -71.5 16711680
-3.94382 -12 -70.5 16711680
-3.94382 -12 -69.5 16711680
-3.94382 -12 -68.5 16711680
-3.94382 -12 -67.5 16711680
-3.94382 -12 -66.5 16711680
-3.94382 -12 -65.5 16711680
-3.94382 -12 -64.5 16711680
-3.94382 -12 -63.5 16711680
-3.94382 -12 -62.5 16711680
-3.94382 -12 -61.5 16711680
-3.94382 -12 -60.5 16711680
-3.94382 -12 -59.5 16711680
-3.94382 -12 -58.5 16711680
-3.94382 -12 -57.5 16711680
-3.94382 -12 -56.5 16711680
-3.94382 -12 -55.5 16711680
-3.94382 -12 -54.5 16711680
-3.94382 33 -89.5 16711680
-3.94382 33 -87.5 16711680
-3.94382 33 -86.5 16711680
-3.94382 33 -84.5 16711680
-3.94382 33 -83.5 16711680
-3.94382 33 -81.5 16711680
-3.94382 33 -80.5 16711680
-3.94382 33 -78.5 16711680
-3.94382 33 -77.5 16711680
-3.94382 33 -76.5 16711680
-3.94382 33 -75.5 16711680
-3.94382 33 -74.5 16711680
-3.94382 33 -72.5 16711680
-3.94382 33 -71.5 16711680
-3.94382 33 -70.5 16711680
-3.94382 33 -69.5 16711680
-3.94382 33 -66.5 16711680
-3.94382 33 -63.5 16711680
-3.94382 33 -61.5 16711680
-3.94382 33 -60.5 16711680
-3.94382 33 -59.5 16711680
-3.94382 33 -58.5 16711680
-3.94382 33 -57.5 16711680
-3.94382 33 -56.5 16711680
-3.94382 33 -54.5 16711680
-3.94382 33 -53.5 16711680
-3.94382 33 -52.5 16711680
-3.94382 33 -51.5 16711680
-3.94382 33 -50.5 16711680
-3.94382 33 -49.5 16711680
-3.94382 33 -48.5 16711680
-3.94382 33 -45.5 16711680
-3.94382 33 -44.5 16711680
-3.94382 33 -42.5 16711680
-3.94382 33 -41.5 16711680
-3.94382 33 -40.5 16711680
-3.94382 33 -39.5 16711680
-3.94382 33 -37.5 16711680
-3.94382 33 -36.5 16711680
-3.94382 33 -35.5 16711680
-3.94382 33 -88.5 16711680
-3.94382 33 -85.5 16711680
-3.94382 33 -82.5 16711680
-3.94382 33 -79.5 16711680
-3.94382 33 -73.5 16711680
-3.94382 33 -68.5 16711680
-3.94382 33 -65.5 16711680
-3.94382 33 -62.5 16711680
-3.94382 33 -55.5 16711680
-3.94382 33 -47.5 16711680
-3.94382 33 -46.5 16711680
-3.94382 33 -43.5 16711680
-3.94382 33 -38.5 16711680
-3.94244 10.4801 -107 16711680
-3.94091 11.4885 -104 16711680
-3.93553 10.8872 -93 16711680
-3.91948 -12 -36.5 16711680
-3.91634 11.6398 -103 16711680
-3.91503 4.55359 42.9992 16711680
-3.91343 8.88563 -102 16711680
-3.90807 8.46905 -93 16711680
-3.89983 10.4928 -106 16711680
-3.89176 11.7912 -102 16711680
-3.88701 11.6178 -104 16711680
-3.88025 11.3626 -103 16711680
-3.87953 8.89961 -103 16711680
-3.87079 -12 -53.5 16711680
-3.87079 -12 -35.5 16711680
-3.86719 11.9425 -101 16711680
-3.86711 10.1973 -98 16711680
-3.85768 11.5958 -105 16711680
-3.85343 10.0594 -99 16711680
-3.84564 8.9136 -104 16711680
-3.84262 12.0938 -100 16711680
-3.83974 9.92139 -100 16711680
-3.83916 10.367 -105 16711680
-3.83763 11.3754 -102 16711680
-3.83427 11.4077 -94 16711680
-3.82836 11.5738 -106 16711680
-3.82732 11.2191 -95 16711680
-3.82037 11.0305 -96 16711680
-3.81805 12.2452 -99 16711680
-3.81343 10.8419 -97 16711680
-3.81174 8.92758 -105 16711680
-3.79903 11.5517 -107 16711680
-3.79808 9.37132 -107 16711680
-3.79775 -12 -52.5 16711680
-3.79655 10.3797 -104 16711680
-3.79501 11.3881 -101 16711680
-3.79464 4.53791 44.1325 16711680
-3.79406 11.951 -93 16711680
-3.79348 12.3965 -98 16711680
-3.7933 -4.54026 43.3992 16711680
-3.78671 -4.54247 42.4992 16711680
-3.78671 4.54247 43.3992 16711680
-3.77784 8.94156 -106 16711680
-3.77333 13.4057 -92 16711680
-3.76891 12.5479 -97 16711680
-3.75659 8.44442 -94 16711680
-3.75393 10.3925 -103 16711680
-3.7524 11.4009 -100 16711680
-3.75086 12.4093 -97 16711680
-3.74894 -7.70004 23.5 16711680
-3.74434 12.6992 -96 16711680
-3.73958 12.5259 -98 16711680
-3.7338 -4e-06 124.349 16711680
-3.72472 -12 -51.5 16711680
-3.72472 33 -21.5 16711680
-3.7227 8.4584 -95 16711680
-3.71976 12.8506 -95 16711680
-3.71226 -8.96229 22.6 16711680
-3.71132 10.4052 -102 16711680
-3.71026 12.5039 -99 16711680
-3.70978 11.4136 -99 16711680
-3.70825 12.422 -96 16711680
-3.69519 13.0019 -94 16711680
-3.69199 0.583003 124.148 16711680
-3.69161 -0.569106 124.183 16711680
-3.69107 8.97105 21.608 16711680
-3.6888 8.47238 -96 16711680
-3.67062 13.1533 -93 16711680
-3.66994 33 -22.5 16711680
-3.66563 12.4348 -95 16711680
-3.66278 8.98278 18.716 16711680
-3.65491 8.48636 -97 16711680
-3.65169 -12 -50.5 16711680
-3.63428 0.610918 124.063 16711680
-3.62815 14.7192 -91.5 16711680
-3.62703 12.6112 -100 16711680
-3.62317 8.99918 15.824 16711680
-3.61672 13.2826 -93 16711680
-3.61517 33 -23.5 16711680
-3.61225 -0.620875 124.039 16711680
-3.60817 -9.3825 13.9762 16711680
-3.5977 12.5892 -101 16711680
-3.59326 33 -7.5 16711680
-3.5874 13.2606 -94 16711680
-3.58703 -0.632743 123.995 16711680
-3.57865 -12 -49.5 16711680
-3.57657 -4e-06 123.979 16711680
-3.57657 0.638832 123.979 16711680
-3.56838 12.5671 -102 16711680
-3.56039 33 -24.5 16711680
-3.55807 13.2386 -95 16711680
-3.54944 33 -8.5 16711680
-3.53905 12.5451 -103 16711680
-3.53467 -9.30371 21.8146 16711680
-3.52875 13.2166 -96 16711680
-3.52136 9.04135 22.572 16711680
-3.50973 12.5231 -104 16711680
-3.50584 5.94233 -91.5 16711680
-3.50562 -12 -48.5 16711680
-3.50562 33 -25.5 16711680
-3.50562 33 -9.5 16711680
-3.49942 13.1945 -97 16711680
-3.49912 16.0322 -90.5 16711680
-3.4978 16.0339 -90.3333 16711680
-3.49691 4.83577 41.4992 16711680
-3.48968 -4.83993 41.4992 16711680
-3.48736 -12 -34.5 16711680
-3.4804 12.5011 -105 16711680
-3.4764 -12 -20.5 16711680
-3.47009 13.1725 -98 16711680
-3.4691 -12 -6.5 16711680
-3.46479 9.06479 19.68 16711680
-3.4618 33 -10.5 16711680
-3.45084 33 -26.5 16711680
-3.44077 13.1505 -99 16711680
-3.43258 -12 -19.5 16711680
-3.43258 -12 -47.5 16711680
-3.43258 -12 -33.5 16711680
-3.43258 -12 -5.5 16711680
-3.41798 33 -11.5 16711680
-3.41185 -0.699998 123.682 16711680
-3.41144 13.1285 -100 16711680
-3.41079 0.699996 123.682 16711680
-3.40701 8.33567 -98 16711680
-3.39718 12.6084 -106 16711680
-3.39607 -12 -4.5 16711680
-3.39607 33 -27.5 16711680
-3.38876 -12 -18.5 16711680
-3.38559 9.0976 16.788 16711680
-3.38211 13.1065 -101 16711680
-3.37781 -12 -32.5 16711680
-3.37416 33 -12.5 16711680
-3.37311 8.34965 -99 16711680
-3.36785 12.5864 -107 16711680
-3.36463 15.2243 -91.25 16711680
-3.35955 -12 -46.5 16711680
-3.35955 -12 -3.5 16711680
-3.35279 13.0845 -102 16711680
-3.35166 9.11164 23.536 16711680
-3.34494 -12 -17.5 16711680
-3.34129 33 -28.5 16711680
-3.33922 8.36364 -100 16711680
-3.33034 33 -13.5 16711680
-3.32346 13.0625 -103 16711680
-3.32303 -12 -31.5 16711680
-3.32303 -12 -2.5 16711680
-3.30532 8.37762 -101 16711680
-3.30112 -12 -16.5 16711680
