VERSION 0.7
FIELDS x y z rgba
SIZE 4 4 4 4
TYPE F F F U
COUNT 1 1 1 1
WIDTH 1496
HEIGHT 1
VIWPOINT 0 0 0 1 0 0 0
DATA ascii
-7.99332 -6.00889 25.2992 16711680
-7.99332 -6.00889 26.3492 16711680
-7.99332 -6.00889 27.3992 16711680
-7.99332 -6.00889 28.4492 16711680
-7.99332 -6.00889 29.4992 16711680
-7.99332 -6.00889 30.5492 16711680
-7.99332 -6.00889 31.5992 16711680
-7.99332 -6.00889 32.6492 16711680
-7.99332 -6.00889 33.6992 16711680
-7.99332 -6.00889 34.7492 16711680
-7.99332 -6.00889 35.7992 16711680
-7.99332 -6.00889 36.8492 16711680
-7.99332 -6.00889 37.8992 16711680
-7.99332 -6.00889 38.9492 16711680
-7.99332 -6.00889 39.9992 16711680
-7.65945 -6.14858 40.1772 16711680
-7.617 6.00594 24.9992 16711680
-7.61683 6.00938 36.2953 16711680
-7.61572 6.0319 35.2818 16711680
-7.61546 6.03715 37.3392 16711680
-7.6146 6.05441 34.2683 16711680
-7.61349 6.07693 33.2548 16711680
-7.61237 6.09944 32.2414 16711680
-7.61126 6.12196 31.2279 16711680
-7.61014 6.14447 30.2144 16711680
-7.60903 6.16699 29.2009 16711680
-7.60791 6.1895 28.1875 16711680
-7.6068 6.21202 27.174 16711680
-7.60671 6.21371 40.1772 16711680
-7.60568 6.23453 26.1605 16711680
-7.60457 6.25705 25.147 16711680
-7.59211 6.50844 38.0392 16711680
-7.59211 6.50844 39.0192 16711680
-7.55227 -6.04191 24.9992 16711680
-6.90887 7.01767 25.147 16711680
-6.90644 7.03324 31.3192 16711680
-6.9004 7.0721 30.3159 16711680
-6.89436 7.11096 29.3125 16711680
-6.88832 7.14981 28.3092 16711680
-6.88228 7.18867 27.3059 16711680
-6.87624 7.22752 26.3025 16711680
-6.8702 7.26638 32.1592 16711680
-6.8702 7.26638 33.1392 16711680
-6.8702 7.26638 34.1192 16711680
-6.8702 7.26638 35.0992 16711680
-6.8702 7.26638 36.0792 16711680
-6.8702 7.26638 37.0592 16711680
-6.8702 7.26638 38.0392 16711680
-6.8702 7.26638 39.0192 16711680
-6.79191 7.32321 40.0111 16711680
-6.67593 -6.99936 27.0229 16711680
-6.67592 -6.99938 25.0192 16711680
-6.67514 -7.00334 24.9992 16711680
-6.67212 -7.01864 28.0348 16711680
-6.66832 -7.03792 29.0466 16711680
-6.66831 -7.03796 26.9992 16711680
-6.66451 -7.0572 30.0585 16711680
-6.66071 -7.07648 31.0704 16711680
-6.6569 -7.09575 32.0822 16711680
-6.6531 -7.11503 33.0941 16711680
-6.6493 -7.13431 34.106 16711680
-6.64549 -7.15359 35.1178 16711680
-6.64169 -7.17287 36.1297 16711680
-6.63788 -7.19214 37.1416 16711680
-6.63568 7.07515 24.9992 16711680
-6.63408 -7.21142 38.1534 16711680
-6.63027 -7.2307 39.1653 16711680
-6.62647 -7.24998 40.1772 16711680
-6.36236 1.33057 42.9992 16711680
-6.29999 0.210754 42.9992 16711680
-6.23762 -0.909059 42.9992 16711680
-6.23185 1.30327 43.1325 16711680
-6.17525 -2.02887 42.9992 16711680
-6.16948 0.183461 43.1325 16711680
-6.13815 -2.01668 43.0935 16711680
-6.10711 -0.936353 43.1325 16711680
-6.1 0 41.4992 16711680
-6.1 0 44.1325 16711680
-6.06394 -1.9923 42.7163 16711680
-6.06394 -1.9923 43.282 16711680
-6.04 0.377892 41.4992 16711680
-5.91999 1.13368 41.4992 16711680
-5.85646 2.33154 42.9992 16711680
-5.79167 -8.03458 25.2192 16711680
-5.79167 -8.03458 26.2972 16711680
-5.79167 -8.03458 27.3752 16711680
-5.79167 -8.03458 28.4532 16711680
-5.79167 -8.03458 29.5312 16711680
-5.79167 -8.03458 30.6092 16711680
-5.79167 -8.03458 31.6872 16711680
-5.79167 -8.03458 32.7652 16711680
-5.79167 -8.03458 33.8432 16711680
-5.79167 -8.03458 34.9212 16711680
-5.79167 -8.03458 35.9992 16711680
-5.78007 -8.07215 36.9992 16711680
-5.76846 -8.10972 37.9992 16711680
-5.75709 2.24265 43.1325 16711680
-5.75686 -8.1473 38.9992 16711680
-5.74525 -8.18487 39.9992 16711680
-5.72982 -1.33329 41.4992 16711680
-5.71167 -1.19516 44.4992 16711680
-5.71167 1.19516 44.1325 16711680
-5.62735 2.22812 41.4992 16711680
-5.41964 -2.28869 41.4992 16711680
-5.41109 8.00579 39.3357 16711680
-5.41089 8.00633 27.0459 16711680
-5.41089 8.00633 29.0925 16711680
-5.41089 8.00633 32.1625 16711680
-5.41089 8.00633 24.9992 16711680
-5.41089 8.00633 26.0225 16711680
-5.41089 8.00633 28.0692 16711680
-5.41089 8.00633 30.1159 16711680
-5.41089 8.00633 31.1392 16711680
-5.41089 8.00633 33.1859 16711680
-5.41089 8.00633 34.2092 16711680
-5.41089 8.00633 35.2325 16711680
-5.41089 8.00633 36.2559 16711680
-5.40307 8.02686 38.3222 16711680
-5.40035 -3.00285 42.7992 16711680
-5.39506 8.04792 37.3088 16711680
-5.38455 -8.21455 40.1772 16711680
-5.35057 3.33251 42.9992 16711680
-5.32334 -2.39033 44.4992 16711680
-5.32334 2.39033 44.1325 16711680
-5.31558 -8.07998 24.9992 16711680
-5.31427 8.26019 40.1772 16711680
-5.29884 8.30075 25.147 16711680
-5.25119 3.24362 43.1325 16711680
-5.10946 -3.24409 41.4992 16711680
-5.10675 3.24791 41.4992 16711680
-5.01538 -3.28589 43.3992 16711680
-4.935 -3.58549 44.4992 16711680
-4.935 3.58549 44.4992 16711680
-4.84468 4.33348 42.9992 16711680
-4.7453 4.24459 43.1325 16711680
-4.48245 4.03728 44.1325 16711680
-4.47947 -4.41075 42.7992 16711680
-4.47947 -4.41075 43.1992 16711680
-4.39213 -4.12727 41.4992 16711680
-4.36658 0.0538009 44.9992 16711680
-4.28852 9.03375 25.2992 16711680
-4.28852 9.03375 26.2792 16711680
-4.28852 9.03375 27.2592 16711680
-4.28852 9.03375 28.2392 16711680
-4.28852 9.03375 29.2192 16711680
-4.28852 9.03375 30.1992 16711680
-4.28852 9.03375 31.1792 16711680
-4.28852 9.03375 32.1592 16711680
-4.28852 9.03375 33.1392 16711680
-4.28852 9.03375 34.1192 16711680
-4.28852 9.03375 35.0992 16711680
-4.28852 9.03375 36.0792 16711680
-4.28852 9.03375 37.0592 16711680
-4.28852 9.03375 38.0392 16711680
-4.28852 9.03375 39.0192 16711680
-4.1965 9.0636 40.0111 16711680
-4.05236 4.30175 41.4992 16711680
-4.01379 -9.02883 25.1992 16711680
-4.01379 -9.02883 26.2881 16711680
-4.01379 -9.02883 27.377 16711680
-4.01379 -9.02883 28.4659 16711680
-4.01379 -9.02883 29.5547 16711680
-4.01379 -9.02883 30.6436 16711680
-4.01379 -9.02883 31.7325 16711680
-4.01379 -9.02883 32.8214 16711680
-4.01379 -9.02883 33.9103 16711680
-4.01379 -9.02883 34.9992 16711680
-3.99463 -9.06316 35.9992 16711680
-3.97546 -9.0975 36.9992 16711680
-3.9563 -9.13184 37.9992 16711680
-3.93714 -9.16618 38.9992 16711680
-3.91918 -4.32384 44.1325 16711680
-3.91798 -9.20051 39.9992 16711680
-3.80616 -5.04452 42.8659 16711680
-3.80616 -5.04452 43.1325 16711680
-3.7338 -4e-06 124.349 16711680
-3.7338 0.494422 124.349 16711680
-3.63428 0.610918 124.063 16711680
-3.61225 -0.620875 124.039 16711680
-3.59669 9.00494 24.9992 16711680
-3.58703 -0.632743 123.995 16711680
-3.57657 0.638832 123.979 16711680
-3.55899 -9.15456 40.1772 16711680
-3.5 -0.000812 9.225 16711680
-3.5 -0.000812 5.76556 16711680
-3.5 -0.000812 6.27028 16711680
-3.5 -0.000812 12.3281 16711680
-3.5 -0.000812 13.3625 16711680
-3.5 -0.000812 14.3969 16711680
-3.5 -0.000812 15.4313 16711680
-3.5 -0.000812 10.2594 16711680
-3.5 -0.000812 11.2937 16711680
-3.5 -0.000812 16.4656 16711680
-3.5 -0.000812 17.5 16711680
-3.46218 0.177135 9.225 16711680
-3.41185 -0.699998 123.682 16711680
-3.372 0.308401 10.2594 16711680
-3.3582 -9.10014 24.9992 16711680
-3.27306 1.06687 9.225 16711680
-3.24401 0.617615 11.2937 16711680
-3.23938 -5.1128 41.4992 16711680
-3.22071 1.02019 10.2594 16711680
-3.19741 1.42277 6.775 16711680
-3.13054 1.15146 11.2937 16711680
-3.12161 0.594615 5.26943 16711680
-3.11601 0.926828 12.3281 16711680
-3.11601 0.926828 15.4313 16711680
-3.10454 0.342688 122.88 16711680
-3.07819 1.10478 12.3281 16711680
-3.05202 1.08144 16.4656 16711680
-3.02002 -0.445564 122.658 16711680
-2.99497 -0.809319 122.683 16711680
-2.98802 1.23604 13.3625 16711680
-2.98802 1.23604 17.5 16711680
-2.98744 -1.23825 5.76556 16711680
-2.98744 -1.23825 6.27028 16711680
-2.98744 -1.23825 9.225 16711680
-2.98744 -1.23825 10.2594 16711680
-2.98744 -1.23825 11.2937 16711680
-2.98744 -1.23825 12.3281 16711680
-2.98744 -1.23825 13.3625 16711680
-2.98744 1.23663 5.76556 16711680
-2.98741 -1.23827 14.3969 16711680
-2.98739 -1.2383 15.4313 16711680
-2.98736 -1.23832 16.4656 16711680
-2.98734 -1.23835 17.5 16711680
-2.96747 5.56133 42.9992 16711680
-2.9649 0.631984 6.975 16711680
-2.92586 5.43465 43.1325 16711680
-2.90167 -5.06279 44.4992 16711680
-2.90167 5.06279 44.4992 16711680
-2.86002 1.54526 14.3969 16711680
-2.83445 5.18631 41.4992 16711680
-2.8 -0.67082 111.199 16711680
-2.8 -0.07308 112.095 16711680
-2.8 0.07308 110.703 16711680
-2.8 0.614308 111.735 16711680
-2.78563 0.864034 122.183 16711680
-2.74655 2.0791 14.3969 16711680
-2.7455 -0.000812 4.17962 16711680
-2.73203 1.85447 15.4313 16711680
-2.71213 -0.800471 110.962 16711680
-2.6942 2.03242 15.4312 16711680
-2.63251 0.68538 121.782 16711680
-2.60403 2.16368 16.4656 16711680
-2.60301 -2.16633 9.225 16711680
-2.60301 -2.16633 10.2594 16711680
-2.60299 -2.16635 11.2937 16711680
-2.60296 -2.16638 12.3281 16711680
-2.60294 -2.1664 13.3625 16711680
-2.60291 -2.16643 14.3969 16711680
-2.60289 -2.16645 15.4312 16711680
-2.60286 -2.16648 16.4656 16711680
-2.60284 -2.1665 17.5 16711680
-2.57809 -0.918641 121.684 16711680
-2.5 -0.999992 111.399 16711680
-2.5 -2.22045e-16 108.354 16711680
-2.5 -1.11022e-16 98.1265 16711680
-2.5 -5.55112e-17 93.0128 16711680
-2.5 0 87.8992 16711680
-2.5 0 88.9219 16711680
-2.5 0 89.9446 16711680
-2.5 0 90.9674 16711680
-2.5 0 91.9901 16711680
-2.5 0 94.0355 16711680
-2.5 0 95.0583 16711680
-2.5 0 96.081 16711680
-2.5 0 97.1037 16711680
-2.5 0 99.1492 16711680
-2.5 0 100.172 16711680
-2.5 0 101.195 16711680
-2.5 0 102.217 16711680
-2.5 0 103.24 16711680
-2.5 0 104.263 16711680
-2.5 0 105.286 16711680
-2.5 0 106.308 16711680
-2.5 0 107.331 16711680
-2.5 0 109.376 16711680
-2.5 0 113.899 16711680
-2.5 -9.63077e-05 86.8915 16711680
-2.5 -0.000192615 85.8838 16711680
-2.5 -0.000288923 84.8761 16711680
-2.5 -0.000385231 83.8684 16711680
-2.5 -0.000481538 82.8607 16711680
-2.5 -0.000577846 81.853 16711680
-2.5 -0.000674154 80.8453 16711680
-2.5 -0.000770462 79.8376 16711680
-2.5 -0.000866769 78.83 16711680
-2.5 -0.000963077 77.8223 16711680
-2.5 -0.00105938 76.8146 16711680
-2.5 -0.00115569 75.8069 16711680
-2.5 -0.001252 74.7992 16711680
-2.5 -0.00134831 73.7915 16711680
-2.5 -0.00144462 72.7838 16711680
-2.5 -0.00154092 71.7761 16711680
-2.5 -0.00163723 70.7684 16711680
-2.5 -0.00173354 69.7607 16711680
-2.5 -0.00182985 68.753 16711680
-2.5 -0.00192615 67.7453 16711680
-2.49999 -0.00202246 66.7376 16711680
-2.49999 -0.00211877 65.73 16711680
-2.49999 -0.00221508 64.7223 16711680
-2.49999 -0.00231138 63.7146 16711680
-2.49999 -0.00240769 62.7069 16711680
-2.49999 -0.002504 61.6992 16711680
-2.49999 -0.00260031 60.6915 16711680
-2.49999 -0.00269662 59.6838 16711680
-2.49999 -0.00279292 58.6761 16711680
-2.49999 -0.00288923 57.6684 16711680
-2.49999 -0.00298554 56.6607 16711680
-2.49999 -0.00308185 55.653 16711680
-2.49999 -0.00317815 54.6453 16711680
-2.49999 -0.00327446 53.6376 16711680
-2.49999 -0.00337077 52.63 16711680
-2.49999 -0.00346708 51.6223 16711680
-2.49999 -0.00356338 50.6146 16711680
-2.49999 -0.00365969 49.6069 16711680
-2.49999 -0.003756 48.5992 16711680
-2.49999 -0.00385231 47.5915 16711680
-2.49999 -0.00394862 46.5838 16711680
-2.49999 -0.00404492 45.5761 16711680
-2.49782 0.0216735 88.8832 16711680
-2.49564 0.043347 89.8673 16711680
-2.49346 0.0650204 90.8513 16711680
-2.49127 0.0866939 91.8354 16711680
-2.49088 0.0906345 92.0143 16711680
-2.4886 0.113293 93.0431 16711680
-2.48632 0.135952 94.0719 16711680
-2.48604 0.0338764 86.8915 16711680
-2.48604 0.0337801 85.8838 16711680
-2.48604 0.0336837 84.8761 16711680
-2.48604 0.0335874 83.8684 16711680
-2.48604 0.0334911 82.8607 16711680
-2.48604 0.0333948 81.853 16711680
-2.48604 0.0332985 80.8453 16711680
-2.48604 0.0332022 79.8376 16711680
-2.48603 0.0331059 78.83 16711680
-2.48603 0.0330096 77.8223 16711680
-2.48603 0.0329133 76.8146 16711680
-2.48603 0.032817 75.8069 16711680
-2.48603 0.0327207 74.7992 16711680
-2.48603 0.0326244 73.7915 16711680
-2.48603 0.0325281 72.7838 16711680
-2.48603 0.0324317 71.7761 16711680
-2.48603 0.0323354 70.7684 16711680
-2.48603 0.0322391 69.7607 16711680
-2.48603 0.0321428 68.753 16711680
-2.48603 0.0320465 67.7453 16711680
-2.48603 0.0319502 66.7376 16711680
-2.48603 0.0318539 65.73 16711680
-2.48603 0.0317576 64.7223 16711680
-2.48603 0.0316613 63.7146 16711680
-2.48603 0.031565 62.7069 16711680
-2.48603 0.0314687 61.6992 16711680
-2.48603 0.0313724 60.6915 16711680
-2.48603 0.0312761 59.6838 16711680
-2.48603 0.0311797 58.6761 16711680
-2.48603 0.0310834 57.6684 16711680
-2.48603 0.0309871 56.6607 16711680
-2.48603 0.0308908 55.653 16711680
-2.48603 0.0307945 54.6453 16711680
-2.48603 0.0306982 53.6376 16711680
-2.48603 0.0306019 52.63 16711680
-2.48603 0.0305056 51.6223 16711680
-2.48603 0.0304093 50.6146 16711680
-2.48603 0.030313 49.6069 16711680
-2.48603 0.0302167 48.5992 16711680
-2.48603 0.0301204 47.5915 16711680
-2.48603 0.0300241 46.5838 16711680
-2.48603 0.0299278 45.5761 16711680
-2.48404 0.15861 95.1006 16711680
-2.48176 0.181269 96.1294 16711680
-2.47948 0.203928 97.1582 16711680
-2.4772 0.226586 98.187 16711680
-2.47604 2.4729 17.5 16711680
-2.47491 0.249245 99.2157 16711680
-2.47487 -2.47568 5.76556 16711680
-2.47487 -2.47568 6.27028 16711680
-2.47487 2.47406 5.76556 16711680
-2.47305 0.946053 121.433 16711680
-2.47263 0.271904 100.245 16711680
-2.47035 0.294562 101.273 16711680
-2.46807 0.317221 102.302 16711680
-2.46579 0.33988 103.331 16711680
-2.46351 0.362538 104.36 16711680
-2.46123 0.385197 105.388 16711680
-2.45895 0.407855 106.417 16711680
-2.45667 0.430514 107.446 16711680
-2.45439 0.453173 108.475 16711680
-2.45211 0.475831 109.504 16711680
-2.42102 0.594615 4.04339 16711680
-2.409 2.53655 13.3625 16711680
-2.39224 2.55246 12.3281 16711680
-2.37548 2.56837 11.2937 16711680
-2.35872 2.58428 10.2594 16711680
-2.34894 -1.0459 4.17962 16711680
-2.34196 2.60019 6.775 16711680
-2.34196 2.60019 9.225 16711680
-2.30381 0.965185 112.285 16711680
-2.28704 -1.00468 113.094 16711680
-2.27338 1.01797 112.633 16711680
-2.26901 0.617615 17.5 16711680
-2.26394 1.06038 113.663 16711680
-2.24168 -1.00303 110.092 16711680
-2.23264 -1.07298 112.045 16711680
-2.20682 -1.03236 108.854 16711680
-2.20636 -1.02068 107.893 16711680
-2.1994 -1.04908 109.022 16711680
-2.17386 -1.00307 106.62 16711680
-2.16128 1.78547 4.45207 16711680
-2.16121 -1.02796 120.684 16711680
-2.16047 1.02807 120.683 16711680
-2.13852 -1.01126 105.523 16711680
-2.12275 -0.000812 3.08981 16711680
-2.11991 -0.685307 120.539 16711680
-2.11634 0.68538 120.527 16711680
-2.11351 -0.553261 124.222 16711680
-2.10799 -1.00254 104.41 16711680
-2.09806 0.549518 124.231 16711680
-2.0811 1.01629 57.6684 16711680
-2.0811 1.01619 56.6607 16711680
-2.0811 1.0161 55.653 16711680
-2.0811 1.016 54.6453 16711680
-2.0811 1.01591 53.6376 16711680
-2.0811 1.01581 52.63 16711680
-2.0811 1.01571 51.6223 16711680
-2.0811 1.01562 50.6146 16711680
-2.0811 1.01552 49.6069 16711680
-2.0811 1.01542 48.5992 16711680
-2.0811 1.01533 47.5915 16711680
-2.0811 1.01523 46.5838 16711680
-2.0811 1.01514 45.5761 16711680
-2.0775 -1.01981 87.8992 16711680
-2.0775 -1.01991 86.8915 16711680
-2.0775 -1.02001 85.8838 16711680
-2.0775 -1.0201 84.8761 16711680
-2.0775 -1.0202 83.8684 16711680
-2.0775 -1.02029 82.8607 16711680
-2.0775 -1.02039 81.853 16711680
-2.0775 -1.02049 80.8453 16711680
-2.0775 -1.02058 79.8376 16711680
-2.0775 -1.02068 78.83 16711680
-2.0775 -1.02078 77.8223 16711680
-2.0775 -1.02087 76.8146 16711680
-2.0775 -1.02097 75.8069 16711680
-2.0775 -1.02106 74.7992 16711680
-2.0775 -1.02116 73.7915 16711680
-2.0775 -1.02126 72.7838 16711680
-2.0775 -1.02135 71.7761 16711680
-2.0775 -1.02145 70.7684 16711680
-2.0775 -1.02155 69.7607 16711680
-2.0775 -1.02164 68.753 16711680
-2.0775 -1.02174 67.7453 16711680
-2.0775 -1.02183 66.7376 16711680
-2.0775 -1.02193 65.73 16711680
-2.07746 -1.02197 64.7223 16711680
-2.07743 -1.02201 63.7146 16711680
-2.07739 -1.02205 62.7069 16711680
-2.07736 -1.02209 61.6992 16711680
-2.07732 -1.02212 60.6915 16711680
-2.07729 -1.02216 59.6838 16711680
-2.07725 -1.0222 58.6761 16711680
-2.07722 -1.02224 57.6684 16711680
-2.07718 -1.02228 56.6607 16711680
-2.07715 -1.02232 55.653 16711680
-2.07711 -1.02236 54.6453 16711680
-2.07708 -1.0224 53.6376 16711680
-2.07704 -1.02243 52.63 16711680
-2.07701 -1.02247 51.6223 16711680
-2.07697 -1.02251 50.6146 16711680
-2.07694 -1.02255 49.6069 16711680
-2.0769 -1.02259 48.5992 16711680
-2.07687 -1.02263 47.5915 16711680
-2.07683 -1.02267 46.5838 16711680
-2.0768 -1.0227 45.5761 16711680
-2.0701 -1.00508 103.324 16711680
-2.05144 2.05064 4.45207 16711680
-2.02887 6.17525 42.9992 16711680
-2.02228 -1.01325 102.277 16711680
-2.00969 -1.07997 119.886 16711680
-2.00913 1.08005 119.885 16711680
-1.99965 -0.013864 22.248 16711680
-1.99844 0.00175 23.8512 16711680
-1.98725 6.04858 43.1325 16711680
-1.98684 -0.0084 23.3105 16711680
-1.98415 -0.018064 21.1859 16711680
-1.98 1.04 91.5392 16711680
-1.98 1.04 92.5792 16711680
-1.98 1.04 93.6192 16711680
-1.98 1.04 94.6592 16711680
-1.98 1.04 95.6992 16711680
-1.98 1.04 96.7392 16711680
-1.98 1.04 97.7792 16711680
-1.98 1.04 98.8192 16711680
-1.98 1.04 99.8592 16711680
-1.98 1.04 100.899 16711680
-1.97673 -0.998853 101.225 16711680
-1.94326 -0.018004 20.1363 16711680
-1.94085 1.19004 3.63471 16711680
-1.94 1.12 101.899 16711680
-1.92891 -1.00702 100.178 16711680
-1.92477 0.475637 14.5 16711680
-1.92477 0.475637 13.5 16711680
-1.92477 0.475637 16.5 16711680
-1.91788 -0.754654 119.475 16711680
-1.91455 0.75469 119.463 16711680
-1.9 1.2 102.899 16711680
-1.8851 -0.017102 19.1093 16711680
-1.87528 1.08233 87.8992 16711680
-1.8743 -1.0829 88.9219 16711680
-1.8743 -1.0829 90.9674 16711680
-1.8743 -1.0829 91.9901 16711680
-1.8743 -1.0829 93.0128 16711680
-1.8743 -1.0829 94.0355 16711680
-1.8743 -1.0829 95.0583 16711680
-1.8743 -1.0829 96.081 16711680
-1.8743 -1.0829 97.1037 16711680
-1.8743 -1.0829 98.1265 16711680
-1.8743 -1.0829 99.1492 16711680
-1.8743 -1.0829 89.9446 16711680
-1.86447 0.502571 87.8992 16711680
-1.86 1.28 103.899 16711680
-1.85817 -1.13198 119.088 16711680
-1.85779 1.13204 119.088 16711680
-1.83865 0.768874 123.061 16711680
-1.83715 -2.02199 4.17962 16711680
-1.82167 1.21342 88.8992 16711680
-1.82092 -0.01546 18.1101 16711680
-1.82 1.36 104.899 16711680
-1.78 1.44 105.899 16711680
-1.77115 1.76427 58.6761 16711680
-1.77103 1.76439 59.6838 16711680
-1.77091 1.76451 60.6915 16711680
-1.77079 1.76462 61.6992 16711680
-1.77067 1.76474 62.7069 16711680
-1.77055 1.76486 63.7146 16711680
-1.77052 0.671563 118.515 16711680
-1.77043 1.76498 64.7223 16711680
-1.77031 1.76509 65.73 16711680
-1.77019 1.76521 66.7376 16711680
-1.77007 1.76533 67.7453 16711680
-1.76995 1.76544 68.753 16711680
-1.76983 1.76556 69.7607 16711680
-1.76971 1.76568 70.7684 16711680
-1.76959 1.7658 71.7761 16711680
-1.76947 1.76591 72.7838 16711680
-1.76935 1.76603 73.7915 16711680
-1.76923 1.76615 74.7992 16711680
-1.76911 1.76627 75.8069 16711680
-1.76899 1.76638 76.8146 16711680
-1.76887 1.7665 77.8223 16711680
-1.76875 1.76662 78.83 16711680
-1.76866 2e-06 118.214 16711680
-1.76863 1.76674 79.8376 16711680
-1.76851 1.76685 80.8453 16711680
-1.76839 1.76697 81.853 16711680
-1.76827 1.76709 82.8607 16711680
-1.76815 1.76721 83.8684 16711680
-1.76803 1.76732 84.8761 16711680
-1.76791 1.76744 85.8838 16711680
-1.76779 1.76756 86.8915 16711680
-1.75715 -1.16666 118.556 16711680
-1.75689 1.16669 118.556 16711680
-1.74 1.52 106.899 16711680
-1.7326 0.993233 20.1407 16711680
-1.72986 -1.00376 20.3233 16711680
-1.72903 0.0134565 19.2794 16711680
-1.72822 0.0083865 18.2155 16711680
-1.72441 1.00234 21.2041 16711680
-1.72276 1.01109 19.1882 16711680
-1.72081 1.00611 18.1243 16711680
-1.72043 0.594615 2.81736 16711680
-1.71094 -0.999315 19.2621 16711680
-1.70664 -1.18399 118.29 16711680
-1.70644 1.18402 118.29 16711680
-1.70059 1.00151 20.2477 16711680
-1.7 -0.000812 8 16711680
-1.7 1.6 107.899 16711680
-1.69748 -0.412 117.973 16711680
-1.69357 0.995362 22.2602 16711680
-1.68466 0.895419 117.949 16711680
-1.66 1.68 108.899 16711680
-1.65999 0.977766 21.2913 16711680
-1.65849 -1.29709 3.08981 16711680
-1.64174 1.00735 117.665 16711680
-1.62 1.76 109.899 16711680
-1.61793 -3.0469 17.5 16711680
-1.58 1.84 110.899 16711680
-1.55512 -1.236 117.493 16711680
-1.55421 3.055 9.225 16711680
-1.54 1.92 111.899 16711680
-1.527 1.30742 117.041 16711680
-1.52696 -1.30767 117.04 16711680
-1.51837 -0.412 116.617 16711680
-1.51296 1.34313 116.816 16711680
-1.51288 -1.3435 116.814 16711680
-1.5 -8.4558 103.754 16711680
-1.5 -8.29376 104.572 16711680
-1.5 -8.13173 105.389 16711680
-1.5 -7.97188 105.343 16711680
-1.5 -7.76343 103.666 16711680
-1.5 -7.73007 104.688 16711680
-1.5 -7.53815 106.192 16711680
-1.5 -7.07026 102.829 16711680
-1.5 -6.94456 106.995 16711680
-1.5 -6.94433 103.614 16711680
-1.5 -6.90207 105.007 16711680
-1.5 -6.81265 107.174 16711680
-1.5 -6.71178 104.987 16711680
-1.5 -6.4957 102.943 16711680
-1.5 -6.15312 108.066 16711680
-1.5 -5.99114 107.795 16711680
-1.5 -5.92438 105.499 16711680
-1.5 -5.90733 106.052 16711680
-1.5 -5.75739 108.602 16711680
-1.5 -5.4301 104.89 16711680
-1.5 -5.16381 109.405 16711680
-1.5 -5.15627 103.936 16711680
-1.5 -4.99583 105.977 16711680
-1.5 -4.95498 106.43 16711680
-1.5 -4.84568 107.873 16711680
-1.5 -4.83404 109.852 16711680
-1.5 -4.57022 110.209 16711680
-1.5 -4.39503 104.921 16711680
-1.5 -4.27976 108.027 16711680
-1.5 -3.97664 111.012 16711680
-1.5 -3.92052 106.731 16711680
-1.5 -3.85176 108.32 16711680
-1.5 -3.85055 110.201 16711680
-1.5 -3.68858 109.929 16711680
-1.5 -3.63379 105.906 16711680
-1.5 -3.23393 107.331 16711680
-1.5 -3.00023 114.519 16711680
-1.5 -2.99576 108.906 16711680
-1.5 -2.98761 107.101 16711680
-1.5 -2.98454 114.59 16711680
-1.5 -2.97888 106.886 16711680
-1.5 -2.86707 110.55 16711680
-1.5 -2.85542 112.529 16711680
-1.5 -2.73897 109.082 16711680
-1.5 -2.61811 115.075 16711680
-1.5 -2.59872 105.937 16711680
-1.5 -2.53148 111.986 16711680
-1.5 -2.19588 113.422 16711680
-1.5 -2 94.8992 16711680
-1.5 -2 95.8992 16711680
-1.5 -2 96.8992 16711680
-1.5 -2 97.8992 16711680
-1.5 -2 98.8992 16711680
-1.5 -2 99.8992 16711680
-1.5 -2 100.899 16711680
-1.5 -2 101.899 16711680
-1.5 -2 102.899 16711680
-1.5 -2 103.899 16711680
-1.5 -2 104.899 16711680
-1.5 -1.94999 115.626 16711680
-1.5 -1.76384 114.856 16711680
-1.5 -0.881918 115.192 16711680
-1.5 -0.812461 114.626 16711680
-1.5 -0.000812 2 16711680
-1.5 0 92.6492 16711680
-1.5 0.078668 113.39 16711680
-1.5 0.59377 114.664 16711680
-1.5 1.0002 115.898 16711680
-1.5 1.25823 115.113 16711680
-1.5 1.4107 114.985 16711680
-1.5 2 95.8992 16711680
-1.5 2 96.8992 16711680
-1.5 2.03212 99.2908 16711680
-1.5 2.03246 100.882 16711680
-1.5 2.10157 98.2238 16711680
-1.5 2.15586 97.7175 16711680
-1.5 2.17243 115.464 16711680
-1.5 2.30291 109.99 16711680
-1.5 2.47406 101.854 16711680
-1.5 2.61811 115.075 16711680
-1.5 2.65059 110.885 16711680
-1.5 2.71975 114.989 16711680
-1.5 2.78151 111.79 16711680
-1.5 2.91244 112.695 16711680
-1.5 3 114.521 16711680
-1.5 3.02187 98.4774 16711680
-1.5 3.18117 102.561 16711680
-1.5 3.20081 100.459 16711680
-1.5 3.25188 99.2378 16711680
-1.5 3.86863 101.127 16711680
-1.5 3.88828 103.268 16711680
-1.5 4.04758 103.109 16711680
-1.5 4.10434 100.42 16711680
-1.5 4.12257 102.919 16711680
-1.5 4.28602 101.545 16711680
-1.5 4.32988 99.9976 16711680
-1.5 5.03733 102.296 16711680
-1.5 5.30249 104.682 16711680
-1.5 5.30249 100.44 16711680
-1.5 5.63789 101.518 16711680
-1.5 5.78863 103.047 16711680
-1.5 6.0096 105.39 16711680
-1.5 6.0096 101.147 16711680
-1.5 6.2919 102.278 16711680
-1.5 6.35072 104.54 16711680
-1.5 6.41207 103.969 16711680
-1.5 6.7167 101.854 16711680
-1.5 7.0503 104.888 16711680
-1.5 7.07025 105.829 16711680
-1.5 7.09022 103.77 16711680
-1.5 7.42381 102.561 16711680
-1.5 8.13092 103.268 16711680
-1.5 8.13092 105.39 16711680
-1.5 8.57023 104.329 16711680
-1.49335 -1.86482 92.9205 16711680
-1.47032 -2.00248 93.977 16711680
-1.46437 2.02352 93.8992 16711680
-1.45139 -3.07985 16.4656 16711680
-1.44341 3.00686 11.2937 16711680
-1.43017 -2.04606 92.9547 16711680
-1.42873 2.04704 92.8992 16711680
-1.42763 -3.01762 15.4313 16711680
-1.42294 1.40334 22.1116 16711680
-1.42004 3.07641 10.2594 16711680
-1.41775 1.41058 89.1492 16711680
-1.41414 1.41414 90.3992 16711680
-1.41376 2.00409 45.5761 16711680
-1.4137 1.40118 23.175 16711680
-1.41364 2.00421 46.5838 16711680
-1.41352 2.00432 47.5915 16711680
-1.4134 2.00444 48.5992 16711680
-1.41328 2.00456 49.6069 16711680
-1.41316 2.00468 50.6146 16711680
-1.41304 2.00479 51.6223 16711680
-1.41292 2.00491 52.63 16711680
-1.4128 2.00503 53.6376 16711680
-1.41268 2.00514 54.6453 16711680
-1.41256 2.00526 55.653 16711680
-1.41244 2.00538 56.6607 16711680
-1.41232 2.0055 57.6684 16711680
-1.4122 2.00561 58.6761 16711680
-1.41208 2.00573 59.6838 16711680
-1.41196 2.00585 60.6915 16711680
-1.41184 2.00597 61.6992 16711680
-1.41172 2.00608 62.7069 16711680
-1.4116 2.0062 63.7146 16711680
-1.41148 2.00632 64.7223 16711680
-1.40557 -1.42298 22.3843 16711680
-1.39964 -2.03162 91.9108 16711680
-1.3968 -1.40675 23.4457 16711680
-1.39511 -1.4184 21.3212 16711680
-1.3931 2.07057 91.8992 16711680
-1.39091 1.39012 2.81736 16711680
-1.38729 -2.0017 90.8949 16711680
-1.35783 -2.01405 89.9566 16711680
-1.35746 2.09409 90.8992 16711680
-1.33057 -6.36236 42.9992 16711680
-1.32183 2.11761 89.8992 16711680
-1.30924 3.02827 12.3281 16711680
-1.30548 -2.06735 88.9219 16711680
-1.30548 -2.06735 87.8992 16711680
-1.28619 2.14113 88.8992 16711680
-1.28346 -1.30823 18.233 16711680
-1.28152 1.5e-06 123.128 16711680
-1.27452 0.73556 8 16711680
-1.26109 -3.05057 14.3969 16711680
-1.25056 2.16465 87.8992 16711680
-1.24605 -5.8066 41.6659 16711680
-1.19722 0.235844 123.153 16711680
-1.18978 -2.00709 70.7684 16711680
-1.18978 -2.00709 71.7761 16711680
-1.18978 -2.00709 72.7838 16711680
-1.18978 -2.00709 73.7915 16711680
-1.18978 -2.00709 74.7992 16711680
-1.18978 -2.00709 75.8069 16711680
-1.18978 -2.00709 76.8146 16711680
-1.18978 -2.00709 77.8223 16711680
-1.18978 -2.00709 78.83 16711680
-1.18978 -2.00709 79.8376 16711680
-1.18978 -2.00709 80.8453 16711680
-1.18978 -2.00709 81.853 16711680
-1.18978 -2.00709 82.8607 16711680
-1.18978 -2.00709 83.8684 16711680
-1.18978 -2.00709 84.8761 16711680
-1.18978 -2.00709 85.8838 16711680
-1.18978 -2.00709 86.8915 16711680
-1.17507 3.04969 13.3625 16711680
-1.15579 -2.02117 69.7607 16711680
-1.125 7.60059 102.738 16711680
-1.12179 -2.03526 68.753 16711680
-1.09455 -3.08352 13.3625 16711680
-1.0878 -2.04934 67.7453 16711680
-1.08156 3.32789 6.775 16711680
-1.07023 -2.21353 88.8992 16711680
-1.05381 -2.06342 66.7376 16711680
-1.03993 -6.26915 43.1325 16711680
-1.03125 2.69503 102.075 16711680
-1.02555 1.33658 8 16711680
-1.01981 -2.0775 65.73 16711680
-1.01651 -0.000812 7.03286 16711680
-0.985819 -2.09159 64.7223 16711680
-0.951825 -2.10567 63.7146 16711680
-0.928078 -3.11639 9.225 16711680
-0.928052 -3.11641 10.2594 16711680
-0.928027 -3.11644 11.2937 16711680
-0.928002 -3.11646 12.3281 16711680
-0.917831 -2.11975 62.7069 16711680
-0.9 3.74686 103.127 16711680
-0.891854 -2.26127 89.8992 16711680
-0.883838 -2.13384 61.6992 16711680
-0.883345 3.16206 14.3969 16711680
-0.88032 0.507442 3.04953 16711680
-0.88032 0.507442 7.04953 16711680
-0.849844 -2.14792 60.6915 16711680
-0.849726 -1.47316 8 16711680
-0.81585 -2.162 59.6838 16711680
-0.793903 -3.04021 5.26943 16711680
-0.781856 -2.17609 58.6761 16711680
-0.75 2.01388 98.9695 16711680
-0.75 2.26193 97.3993 16711680
-0.75 2.27764 101.658 16711680
-0.75 2.3983 99.0509 16711680
-0.75 2.55263 100.047 16711680
-0.75 2.56245 97.6998 16711680
-0.75 2.69503 102.075 16711680
-0.75 2.95603 113.548 16711680
-0.75 3.0489 98.7166 16711680
-0.75 3.33269 99.6822 16711680
-0.75 3.44633 102.826 16711680
-0.75 3.45616 100.479 16711680
-0.75 3.46401 98.6014 16711680
-0.75 3.65257 101.618 16711680
-0.75 4.06505 99.2024 16711680
-0.75 4.19764 103.578 16711680
-0.75 4.26708 100.314 16711680
-0.75 4.43825 102.168 16711680
-0.75 4.81635 99.9537 16711680
-0.75 4.94894 104.329 16711680
-0.75 5.20147 100.945 16711680
-0.75 5.22392 102.718 16711680
-0.75 5.26321 101.343 16711680
-0.75 5.56766 100.705 16711680
-0.75 6.13587 101.576 16711680
-0.748034 -1.30094 2 16711680
-0.747863 -2.19017 57.6684 16711680
-0.713869 -2.20425 56.6607 16711680
-0.713483 -2.309 90.8992 16711680
-0.679875 -2.21834 55.653 16711680
-0.645881 -2.23242 54.6453 16711680
-0.633644 -5.80316 44.1325 16711680
-0.623025 5.80316 44.1325 16711680
-0.611887 -2.2465 53.6376 16711680
-0.591623 3.27443 15.4313 16711680
-0.577894 -2.26059 52.63 16711680
-0.5439 -2.27467 51.6223 16711680
-0.535113 -2.35674 91.8992 16711680
-0.530325 2.21364 3.63471 16711680
-0.509906 -2.28875 50.6146 16711680
-0.498689 -1.99031 3.08981 16711680
-0.479188 -4e-06 122.348 16711680
-0.479188 0.0592547 122.348 16711680
-0.475913 -2.30284 49.6069 16711680
-0.441919 -2.31692 48.5992 16711680
-0.424522 1.58556 8 16711680
-0.407925 -2.331 47.5915 16711680
-0.407155 2.41844 65.73 16711680
-0.404243 1.06824 120.042 16711680
-0.388648 2.42215 66.7376 16711680
-0.373931 -2.34509 46.5838 16711680
-0.370141 2.42585 67.7453 16711680
-0.356742 -2.40447 92.8992 16711680
-0.351634 2.42956 68.753 16711680
-0.339938 -2.35917 45.5761 16711680
-0.333127 2.43327 69.7607 16711680
-0.31462 2.43697 70.7684 16711680
-0.2999 3.3868 16.4656 16711680
-0.296113 2.44068 71.7761 16711680
-0.277606 2.44439 72.7838 16711680
-0.259099 2.4481 73.7915 16711680
-0.249345 -2.67968 4.17962 16711680
-0.240592 2.4518 74.7992 16711680
-0.222085 2.45551 75.8069 16711680
-0.203578 2.45922 76.8146 16711680
-0.197075 9.698 24.9992 16711680
-0.185071 2.46293 77.8223 16711680
-0.178371 -2.45221 93.8992 16711680
-0.166564 2.46663 78.83 16711680
-0.162938 9.99867 38.9492 16711680
-0.162938 9.99867 39.9992 16711680
-0.162938 9.99867 25.2992 16711680
-0.162938 9.99867 26.3492 16711680
-0.162938 9.99867 27.3992 16711680
-0.162938 9.99867 28.4492 16711680
-0.162938 9.99867 29.4992 16711680
-0.162938 9.99867 30.5492 16711680
-0.162938 9.99867 31.5992 16711680
-0.162938 9.99867 32.6492 16711680
-0.162938 9.99867 33.6992 16711680
-0.162938 9.99867 34.7492 16711680
-0.162938 9.99867 35.7992 16711680
-0.162938 9.99867 36.8492 16711680
-0.162938 9.99867 37.8992 16711680
-0.148056 2.47034 79.8376 16711680
-0.147193 9.98688 40.0111 16711680
-0.129549 2.47405 80.8453 16711680
-0.111042 2.47776 81.853 16711680
-0.0925353 2.48146 82.8607 16711680
-0.0740282 2.48517 83.8684 16711680
-0.073243 -9.82176 40.1772 16711680
-0.0555212 2.48888 84.8761 16711680
-0.0370141 2.49259 85.8838 16711680
-0.0185071 2.49629 86.8915 16711680
-0.017695 1.9844 22.9387 16711680
-0.014696 -1.98756 19.5587 16711680
-0.00933 -2.00046 18.4962 16711680
-0.00933 -2.00046 18.4962 16711680
-0.008178 3.49918 17.5 16711680
-0.005182 -1.98753 21.5604 16711680
-2.22045e-16 2.49994 94.8992 16711680
0 -8.57185 104.329 16711680
0 -8.13254 105.39 16711680
0 -7.53815 106.192 16711680
0 -6.94456 106.995 16711680
0 -6.81265 107.174 16711680
0 -6.15312 108.066 16711680
0 -5.99133 106.075 16711680
0 -5.91365 107.318 16711680
0 -5.75739 108.602 16711680
0 -5.16381 109.405 16711680
0 -4.98582 105.927 16711680
0 -4.97944 106.395 16711680
0 -4.84568 108.247 16711680
0 -4.84439 107.871 16711680
0 -4.83404 109.852 16711680
0 -4.57022 110.209 16711680
0 -3.97664 111.012 16711680
0 -3.9432 106.352 16711680
0 -3.94087 108.444 16711680
0 -3.87703 105.575 16711680
0 -3.69557 109.248 16711680
0 -3.67919 107.154 16711680
0 -3.50081 5.76556 16711680
0 -3.50081 6.27028 16711680
0 -3.50081 9.225 16711680
0 -2.96494 113.789 16711680
0 -2.5 45.5761 16711680
0 -2.5 46.5838 16711680
0 -2.5 47.5915 16711680
0 -2.5 48.5992 16711680
0 -2.5 49.6069 16711680
0 -2.5 50.6146 16711680
0 -2.5 51.6223 16711680
0 -2.5 52.63 16711680
0 -2.5 53.6376 16711680
0 -2.5 54.6453 16711680
0 -2.5 55.653 16711680
0 -2.5 56.6607 16711680
0 -2.5 57.6684 16711680
0 -2.5 58.6761 16711680
0 -2.5 59.6838 16711680
0 -2.5 60.6915 16711680
0 -2.5 61.6992 16711680
0 -2.5 62.7069 16711680
0 -2.5 63.7146 16711680
0 -2.5 64.7223 16711680
0 -2.5 65.73 16711680
0 -2.5 66.7376 16711680
0 -2.5 67.7453 16711680
0 -2.5 68.753 16711680
0 -2.5 69.7607 16711680
0 -2.5 70.7684 16711680
0 -2.5 71.7761 16711680
0 -2.5 72.7838 16711680
0 -2.5 73.7915 16711680
0 -2.5 74.7992 16711680
0 -2.5 75.8069 16711680
0 -2.5 76.8146 16711680
0 -2.5 77.8223 16711680
0 -2.5 78.83 16711680
0 -2.5 79.8376 16711680
0 -2.5 80.8453 16711680
0 -2.5 81.853 16711680
0 -2.5 82.8607 16711680
0 -2.5 83.8684 16711680
0 -2.5 84.8761 16711680
0 -2.5 85.8838 16711680
0 -2.5 86.8915 16711680
0 -2.5 87.8992 16711680
0 -2.49994 94.8992 16711680
0 -2.00081 23.5 16711680
0 -1.47356 8 16711680
-0 -1.01732 7.13286 16711680
-0 1.0157 7.33286 16711680
0 1.96625 2.81736 16711680
0 2.0021 107.284 16711680
0 2.17246 106.271 16711680
0 2.43267 108.638 16711680
0 2.43331 3.63471 16711680
0 2.5 45.5761 16711680
0 2.5 46.5838 16711680
0 2.5 47.5915 16711680
0 2.5 48.5992 16711680
0 2.5 49.6069 16711680
0 2.5 50.6146 16711680
0 2.5 51.6223 16711680
0 2.5 52.63 16711680
0 2.5 53.6376 16711680
0 2.5 54.6453 16711680
0 2.5 55.653 16711680
0 2.5 56.6607 16711680
0 2.5 57.6684 16711680
0 2.5 58.6761 16711680
0 2.5 59.6838 16711680
0 2.5 60.6915 16711680
0 2.5 61.6992 16711680
0 2.5 62.7069 16711680
0 2.5 63.7146 16711680
0 2.5 64.7223 16711680
0 2.5 65.73 16711680
0 2.5 66.7376 16711680
0 2.5 67.7453 16711680
0 2.5 68.753 16711680
0 2.5 69.7607 16711680
0 2.5 70.7684 16711680
0 2.5 71.7761 16711680
0 2.5 72.7838 16711680
0 2.5 73.7915 16711680
0 2.5 74.7992 16711680
0 2.5 75.8069 16711680
0 2.5 76.8146 16711680
0 2.5 77.8223 16711680
0 2.5 78.83 16711680
0 2.5 79.8376 16711680
0 2.5 80.8453 16711680
0 2.5 81.853 16711680
0 2.5 82.8607 16711680
0 2.5 83.8684 16711680
0 2.5 84.8761 16711680
0 2.5 85.8838 16711680
0 2.5 86.8915 16711680
0 2.5 87.8992 16711680
0 2.59872 105.937 16711680
0 2.90037 4.45207 16711680
0 2.92524 112.989 16711680
0 2.96243 113.695 16711680
0 3.03734 109.017 16711680
0 3.04473 106.859 16711680
0 3.05048 111.161 16711680
0 3.10612 107.474 16711680
0 3.3503 105.917 16711680
0 3.36743 5.26943 16711680
0 3.38314 108.035 16711680
0 3.49919 5.76556 16711680
0 3.62554 110.015 16711680
0 3.97664 111.012 16711680
0 4.01528 106.393 16711680
0 4.02242 110.582 16711680
0 4.02256 108.491 16711680
0 4.14959 107.014 16711680
0 4.186 105.358 16711680
0 4.33785 109.051 16711680
0 4.57022 110.209 16711680
0 5.02756 108.102 16711680
0 5.03898 106.453 16711680
0 5.0579 105.969 16711680
0 5.16381 109.405 16711680
0 5.42115 107.109 16711680
0 6.0096 105.39 16711680
0 6.02577 107.871 16711680
0 6.07895 106.121 16711680
0 6.15311 108.066 16711680
0 6.81265 107.174 16711680
0 7.30989 106.009 16711680
0 7.53814 106.192 16711680
0 8.13173 105.389 16711680
0.00019 -2.00079 20.4978 16711680
0.00019 -2.00079 20.4978 16711680
0.000537 1.99849 23.7342 16711680
0.00102225 -3.50081 10.2594 16711680
0.0020445 -3.50081 11.2937 16711680
0.002559 1.99606 21.0298 16711680
0.00306675 -3.50081 12.3281 16711680
0.004089 -3.50081 13.3625 16711680
0.00511125 -3.5008 14.3969 16711680
0.0061335 -3.5008 15.4313 16711680
0.006306 -3.10075 6.975 16711680
0.007065 1.98226 20.0261 16711680
0.00715575 -3.5008 16.4656 16711680
0.008178 -3.5008 17.5 16711680
0.009943 -2.00045 22.4978 16711680
0.009943 -2.00045 22.4978 16711680
0.012075 1.99591 19.0282 16711680
0.0174 1.986 18.0578 16711680
0.0385755 3.49678 16.4656 16711680
0.085329 3.49439 15.4313 16711680
0.10925 -1.06669 120.035 16711680
0.132082 3.49199 14.3969 16711680
0.162938 -9.99867 25.2992 16711680
0.162938 -9.99867 26.3492 16711680
0.162938 -9.99867 27.3992 16711680
0.162938 -9.99867 28.4492 16711680
0.162938 -9.99867 29.4992 16711680
0.162938 -9.99867 30.5492 16711680
0.162938 -9.99867 31.5992 16711680
0.162938 -9.99867 32.6492 16711680
0.162938 -9.99867 33.6992 16711680
0.162938 -9.99867 34.7492 16711680
0.162938 -9.99867 35.7992 16711680
0.162938 -9.99867 36.8492 16711680
0.162938 -9.99867 37.8992 16711680
0.162938 -9.99867 38.9492 16711680
0.162938 -9.99867 39.9992 16711680
0.178371 2.45221 93.8992 16711680
0.178836 3.4896 13.3625 16711680
0.182925 3.4896 6.27028 16711680
0.185071 2.46293 45.5761 16711680
0.197075 -9.698 24.9992 16711680
0.203578 2.45922 46.5838 16711680
0.222085 2.45551 47.5915 16711680
0.225589 3.4872 12.3281 16711680
0.240592 2.4518 48.5992 16711680
0.259099 2.4481 49.6069 16711680
0.272343 3.48481 11.2937 16711680
0.277606 2.44439 50.6146 16711680
0.296113 2.44068 51.6223 16711680
0.31462 2.43697 52.63 16711680
0.319097 3.48241 10.2594 16711680
0.333127 2.43327 53.6376 16711680
0.351634 2.42956 54.6453 16711680
0.356742 2.40447 92.8992 16711680
0.36585 3.48001 9.225 16711680
0.370141 2.42585 55.653 16711680
0.388648 2.42215 56.6607 16711680
0.407155 2.41844 57.6684 16711680
0.535113 2.35674 91.8992 16711680
0.555656 0.673297 121.107 16711680
0.578038 -0.757686 121.046 16711680
0.617726 -4e-06 120.457 16711680
0.671667 1.00995 120.886 16711680
0.70106 0.336646 120.357 16711680
0.713483 2.309 90.8992 16711680
0.75 -6.32058 101.456 16711680
0.75 -5.79025 101.987 16711680
0.75 -5.56928 100.705 16711680
0.75 -5.52508 102.252 16711680
0.75 -4.99475 102.782 16711680
0.75 -4.81798 99.9537 16711680
0.75 -4.77378 101.501 16711680
0.75 -4.72959 103.047 16711680
0.75 -4.61934 100.153 16711680
0.75 -3.97829 102.296 16711680
0.75 -3.80183 99.4679 16711680
0.75 -3.75732 101.014 16711680
0.75 -3.45778 100.479 16711680
0.75 -3.31537 98.4511 16711680
0.75 5.16381 109.405 16711680
0.75 8.29376 104.572 16711680
0.750114 -1.29973 2 16711680
0.785109 -6.12899 43.1992 16711680
0.793903 -3.04021 5.26943 16711680
0.849726 -1.47316 8 16711680
0.87144 -1.06669 120.035 16711680
0.891854 2.26127 89.8992 16711680
0.911817 -4e-06 119.365 16711680
0.928078 -3.11639 9.225 16711680
0.9291 -3.11639 10.2594 16711680
0.930122 -3.11639 11.2937 16711680
0.931144 -3.11638 12.3281 16711680
0.932167 -3.11638 13.3625 16711680
0.933189 -3.11638 14.3969 16711680
0.933334 -3.11624 15.4313 16711680
0.93348 -3.11609 16.4656 16711680
0.933625 -3.11594 17.5 16711680
0.945895 1.0853 119.755 16711680
0.962475 0.336646 119.386 16711680
0.977819 2.29688 86.8915 16711680
0.991071 -4.83692 99.9726 16711680
0.99327 2.28654 85.8838 16711680
1.00872 2.27621 84.8761 16711680
1.0165 0.003738 5.28316 16711680
1.0165 0.003738 7.28316 16711680
1.01651 -0.000812 7.23286 16711680
1.02417 2.26587 83.8684 16711680
1.02623 1.33619 8 16711680
1.03963 2.25553 82.8607 16711680
1.05508 2.24519 81.853 16711680
1.07023 2.21353 88.8992 16711680
1.07053 2.23486 80.8453 16711680
1.07884 -1.12313 119.188 16711680
1.08598 2.22452 79.8376 16711680
1.10143 2.21418 78.83 16711680
1.11688 2.20385 77.8223 16711680
1.125 -3.71312 98.8489 16711680
1.125 -2.82924 97.965 16711680
1.13234 2.19351 76.8146 16711680
1.14779 2.18317 75.8069 16711680
1.16324 2.17283 74.7992 16711680
1.17869 2.1625 73.7915 16711680
1.19414 2.15216 72.7838 16711680
1.20591 -4e-06 118.272 16711680
1.20706 -2.00473 86.8915 16711680
1.20959 2.14182 71.7761 16711680
1.21012 -2.01136 84.8761 16711680
1.21875 -7.73479 102.871 16711680
1.22012 1.16065 118.624 16711680
1.22389 0.336646 118.415 16711680
1.22505 2.13149 70.7684 16711680
1.22557 -2.00103 85.8838 16711680
1.22862 -2.00766 83.8684 16711680
1.23 -3.93233 103.311 16711680
1.2405 2.12115 69.7607 16711680
1.24605 5.8066 41.6659 16711680
1.24713 -2.00395 82.8607 16711680
1.25019 -2.01058 80.8453 16711680
1.25056 -2.16465 87.8992 16711680
1.25595 2.11081 68.753 16711680
1.26564 -2.00024 81.853 16711680
1.26869 -2.00687 79.8376 16711680
1.2714 2.10047 67.7453 16711680
1.28619 -2.14113 88.8992 16711680
1.28624 -1.17956 118.34 16711680
1.28685 2.09014 66.7376 16711680
1.2872 -2.00316 78.83 16711680
1.29026 -2.00979 76.8146 16711680
1.3023 2.0798 65.73 16711680
1.30327 6.23185 43.1325 16711680
1.30548 2.06735 87.8992 16711680
1.30548 2.06735 88.9355 16711680
1.3057 1.33004 18.7316 16711680
1.30571 -1.99946 77.8223 16711680
1.30876 -2.00609 75.8069 16711680
1.31776 2.06946 64.7223 16711680
1.32183 -2.11761 89.8992 16711680
1.32727 -2.00238 74.7992 16711680
1.33033 -2.00901 72.7838 16711680
1.33057 6.36236 42.9992 16711680
1.33236 3.23562 17.5 16711680
1.33321 2.05913 63.7146 16711680
1.34578 -1.99867 73.7915 16711680
1.34866 2.04879 62.7069 16711680
1.34883 -2.0053 71.7761 16711680
1.35 -6.71833 101.854 16711680
1.35189 -2.01193 69.7607 16711680
1.35528 2.00785 89.8899 16711680
1.35746 -2.09409 90.8992 16711680
1.36411 2.03845 61.6992 16711680
1.36734 -2.00159 70.7684 16711680
1.3704 -2.00822 68.753 16711680
1.37874 2.01286 90.9572 16711680
1.37956 2.02811 60.6915 16711680
1.38358 1.40629 20.7928 16711680
1.38456 3.20995 16.4656 16711680
1.3875 -4.79146 104.17 16711680
1.3889 -2.00452 67.7453 16711680
1.39093 1.3901 2.81736 16711680
1.39196 -2.01115 65.73 16711680
1.3931 -2.07057 91.8992 16711680
1.39439 1.4206 23.8279 16711680
1.39501 2.01778 59.6838 16711680
1.40238 1.42198 21.8522 16711680
1.40346 1.41586 22.916 16711680
1.40417 2.01495 91.9604 16711680
1.40741 -2.00081 66.7376 16711680
1.41046 -2.00744 64.7223 16711680
1.41046 2.00744 58.6761 16711680
1.41062 -2.00728 63.7146 16711680
1.41077 -2.00713 62.7069 16711680
1.41093 -2.00697 61.6992 16711680
1.41108 -2.00682 60.6915 16711680
1.41124 -2.00666 59.6838 16711680
1.41139 -2.0065 58.6761 16711680
1.41155 -2.00635 57.6684 16711680
1.4117 -2.00619 56.6607 16711680
1.41186 -2.00604 55.653 16711680
1.41201 -2.00588 54.6453 16711680
1.41217 -2.00572 53.6376 16711680
1.41232 -2.00557 52.63 16711680
1.41248 -2.00541 51.6223 16711680
1.41263 -2.00526 50.6146 16711680
1.41279 -2.0051 49.6069 16711680
1.41294 -2.00494 48.5992 16711680
1.4131 -2.00479 47.5915 16711680
1.41325 -2.00463 46.5838 16711680
1.41341 -2.00447 45.5761 16711680
1.41384 -1.41458 90.3992 16711680
1.4176 -1.4108 89.1492 16711680
1.421 -1.40617 22.6438 16711680
1.425 -5.90515 105.284 16711680
1.425 -5.83444 100.97 16711680
1.42873 -2.04704 92.8992 16711680
1.43197 2.02074 92.8698 16711680
1.43677 3.18428 15.4313 16711680
1.45102 0.60022 8 16711680
1.46409 2.02369 93.8992 16711680
1.46437 -2.02352 93.8992 16711680
1.48897 3.15861 14.3969 16711680
1.48994 2.00663 94.6192 16711680
1.5 -8.57185 104.329 16711680
1.5 -8.13254 103.268 16711680
1.5 -8.13254 105.39 16711680
1.5 -7.95554 103.445 16711680
1.5 -7.82186 105.079 16711680
1.5 -7.79142 104.117 16711680
1.5 -7.34687 102.483 16711680
1.5 -6.99286 102.836 16711680
1.5 -6.96554 103.798 16711680
1.5 -6.71285 104.987 16711680
1.5 -6.56119 101.697 16711680
1.5 -6.07751 105.191 16711680
1.5 -5.93265 102.954 16711680
1.5 -5.79025 103.047 16711680
1.5 -5.77552 100.911 16711680
1.5 -5.71618 101.771 16711680
1.5 -5.55665 104.177 16711680
1.5 -4.99271 101.062 16711680
1.5 -4.98984 100.126 16711680
1.5 -4.97266 102.495 16711680
1.5 -4.9695 103.363 16711680
1.5 -4.3315 99.9976 16711680
1.5 -3.94898 102.856 16711680
1.5 -3.91347 100.463 16711680
1.5 -3.8899 103.268 16711680
1.5 -3.7952 101.734 16711680
1.5 -3.6775 99.2375 16711680
1.5 -3.41849 98.5542 16711680
1.5 -3 114.521 16711680
1.5 -2.99578 98.5861 16711680
1.5 -2.98637 99.772 16711680
1.5 -2.98439 114.591 16711680
1.5 -2.96673 101.167 16711680
1.5 -2.95622 113.608 16711680
1.5 -2.91244 112.695 16711680
1.5 -2.78504 100.042 16711680
1.5 -2.78151 111.79 16711680
1.5 -2.66893 115.032 16711680
1.5 -2.65059 110.885 16711680
1.5 -2.63282 97.7686 16711680
1.5 -2.30291 109.99 16711680
1.5 -2 94.8992 16711680
1.5 -2 95.8992 16711680
1.5 -2 96.8992 16711680
1.5 -2 102.899 16711680
1.5 -2 103.899 16711680
1.5 -2 104.899 16711680
1.5 -2 105.899 16711680
1.5 -2 106.899 16711680
1.5 -2 107.899 16711680
1.5 -2 108.899 16711680
1.5 -1.96077 115.747 16711680
1.5 -1.94533 114.492 16711680
1.5 -1.68292 116.04 16711680
1.5 -1.2659 117.179 16711680
1.5 -0.949427 117.179 16711680
1.5 -0.890659 114.463 16711680
1.5 -0.84146 116.61 16711680
1.5 -0.838822 115.097 16711680
1.5 0.164014 114.434 16711680
1.5 0.632948 117.179 16711680
1.5 0.749904 116.485 16711680
1.5 0.999874 115.165 16711680
1.5 1.21869 114.405 16711680
1.5 1.2659 117.179 16711680
1.5 1.40491 116.799 16711680
1.5 1.49981 115.79 16711680
1.5 1.68292 116.04 16711680
1.5 2.03391 113.15 16711680
1.5 2.04555 111.171 16711680
1.5 2.05033 107.363 16711680
1.5 2.13977 109.492 16711680
1.5 2.23862 115.453 16711680
1.5 2.53095 108.597 16711680
1.5 2.54312 110.007 16711680
1.5 2.59872 105.937 16711680
1.5 2.64436 106.096 16711680
1.5 2.69345 112.258 16711680
1.5 2.71975 114.989 16711680
1.5 3.02904 110.822 16711680
1.5 3.03024 108.941 16711680
1.5 3.09921 109.01 16711680
1.5 3.19101 111.094 16711680
1.5 3.23393 107.331 16711680
1.5 3.3503 106.695 16711680
1.5 3.45124 105.27 16711680
1.5 4.01252 110.473 16711680
1.5 4.02417 108.494 16711680
1.5 4.186 106.265 16711680
1.5 4.30375 104.603 16711680
1.5 4.34812 109.037 16711680
1.5 4.37334 107.126 16711680
1.5 4.44067 105.08 16711680
1.5 5.00765 108.144 16711680
1.5 5.02169 105.835 16711680
1.5 5.15627 103.936 16711680
1.5 5.19305 106.554 16711680
1.5 5.20191 104.095 16711680
1.5 5.56374 107.147 16711680
1.5 6.00879 103.269 16711680
1.5 6.15311 108.066 16711680
1.5 6.17261 106.166 16711680
1.5 6.23698 104.064 16711680
1.5 6.4957 102.943 16711680
1.5 6.81265 107.174 16711680
1.5 7.07026 102.829 16711680
1.5 7.07026 103.579 16711680
1.5 7.07107 105.078 16711680
1.5 7.31022 106.01 16711680
1.5 7.71974 104.704 16711680
1.5 8.13173 105.389 16711680
1.5 8.45579 103.754 16711680
1.54118 3.13295 13.3625 16711680
1.59338 3.10728 12.3281 16711680
1.63465 -0.964084 21.8041 16711680
1.63756 0.794676 2.81736 16711680
1.64559 3.08161 11.2937 16711680
1.67115 -0.987888 22.782 16711680
1.69779 3.05594 10.2594 16711680
1.7 -0.000812 8 16711680
1.71164 -1.00235 21.7338 16711680
1.71473 -1.00944 19.7193 16711680
1.72119 1.72037 3.63471 16711680
1.7216 1.00473 19.7919 16711680
1.72473 -1.01205 18.656 16711680
1.72749 -0.985106 19.6102 16711680
1.72894 1.00514 90.3992 16711680
1.73138 -1.00196 23.5769 16711680
1.73152 -0.012308 18.7474 16711680
1.73169 -1.00102 20.6726 16711680
1.73175 -0.0024165 20.7639 16711680
1.75 3.03028 6.775 16711680
1.75 3.03028 9.225 16711680
1.7674 1.76812 45.5761 16711680
1.76756 1.76797 46.5838 16711680
1.76771 1.76781 47.5915 16711680
1.76787 1.76766 48.5992 16711680
1.76802 1.7675 49.6069 16711680
1.76818 1.76734 50.6146 16711680
1.76833 1.76719 51.6223 16711680
1.76849 1.76703 52.63 16711680
1.76864 1.76688 53.6376 16711680
1.7688 1.76672 54.6453 16711680
1.76895 1.76656 55.653 16711680
1.76911 1.76641 56.6607 16711680
1.76926 1.76625 57.6684 16711680
1.76942 1.7661 58.6761 16711680
1.76957 1.76594 59.6838 16711680
1.76973 1.76578 60.6915 16711680
1.76988 1.76563 61.6992 16711680
1.77004 1.76547 62.7069 16711680
1.77019 1.76532 63.7146 16711680
1.77035 1.76516 64.7223 16711680
1.81775 1.21324 14.5 16711680
1.82167 -1.21342 88.8992 16711680
1.83784 -2.02159 4.17962 16711680
1.85297 0.015408 18.6061 16711680
1.86447 0.502571 90.3992 16711680
1.8743 1.0829 88.9355 16711680
1.8743 1.0829 89.9719 16711680
1.8743 1.0829 91.0083 16711680
1.8743 1.0829 92.0446 16711680
1.8743 1.0829 93.081 16711680
1.8743 1.0829 94.1174 16711680
1.8743 1.0829 95.1537 16711680
1.8743 1.0829 96.1901 16711680
1.8743 1.0829 97.2265 16711680
1.8743 1.0829 98.2628 16711680
1.88872 1.2181 99.8436 16711680
1.91569 0.016232 19.6196 16711680
1.94085 -1.19167 3.63471 16711680
1.94136 1.94054 4.17962 16711680
1.94207 1.13913 100.839 16711680
1.95833 -1.08333 92.4409 16711680
1.96646 0.015911 20.6588 16711680
1.96706 -0.000812 2.81736 16711680
1.98148 -1.03704 95.8621 16711680
1.98485 -1.0303 98.778 16711680
1.98685 0.019182 23.6924 16711680
1.98889 -1.02222 93.677 16711680
1.99123 -1.01754 96.6185 16711680
1.99167 -1.08725 102.991 16711680
1.99275 -1.01449 99.5803 16711680
1.99538 0.015641 21.7162 16711680
1.99541 1.06015 101.834 16711680
1.99678 0.009946 22.78 16711680
1.99984 -0.002137 23.6171 16711680
2 -1 91.3992 16711680
2 -1 94.3992 16711680
2 -1 97.3992 16711680
2 0 90.3992 16711680
2.00112 -1.04483 101.96 16711680
2.00211 1.3229 106.532 16711680
2.00266 9.7189 25.2349 16711680
2.00266 9.7189 26.2849 16711680
2.00266 9.7189 27.3349 16711680
2.00266 9.7189 28.3849 16711680
2.00266 9.7189 29.4349 16711680
2.00266 9.7189 30.4849 16711680
2.00266 9.7189 31.5349 16711680
2.00266 9.7189 32.5849 16711680
2.00266 9.7189 33.6349 16711680
2.00266 9.7189 34.6849 16711680
