# .PCD v0.7 - Point Cloud Data file format
VERSION 0.7
FIELDS x y z rgba
SIZE 4 4 4 4
TYPE F F F U
COUNT 1 1 1 1
WIDTH 1073
HEIGHT 1
VIEWPOINT 0 0 0 1 0 0 0
POINTS 1073
DATA ascii
0.00221255 -0.03595995 -0.00107191 15329769
0.00221283 -0.06920611 -0.00099973 12632256
0.00221304 -0.03595995 -0.00000084 11316396
0.00221353 -0.03595995 0.00107023 12961221
0.00221575 -0.07222918 -0.00102129 11974326
0.00221834 -0.06920611 0.00067987 13158600
0.00221946 -0.07122149 -0.00100279 12171705
0.00222036 -0.08484809 0.00973804 10855845
0.00222238 -0.07424457 -0.00102435 11382189
0.00222499 -0.08443495 -0.00909755 12698049
0.00222609 -0.07323687 -0.00100584 15132390
0.00222901 -0.07625995 -0.00102740 14079702
0.00223242 -0.07021380 0.00064588 14013909
0.00223272 -0.07525226 -0.00100890 11974326
0.00223564 -0.07827534 -0.00103046 11776947
0.00223822 -0.09955995 0.00974630 11776947
0.00223822 -0.09850995 0.00974630 13421772
0.00223822 -0.09745995 0.00974630 14013909
0.00223822 -0.09640995 0.00974630 12500670
0.00223822 -0.09535995 0.00974630 13027014
0.00223822 -0.09430995 0.00974630 14671839
0.00223822 -0.09325995 0.00974630 13158600
0.00223822 -0.09220995 0.00974630 13158600
0.00223822 -0.09115995 0.00974630 12895428
0.00223822 -0.09010995 0.00974630 13224393
0.00223822 -0.08905995 0.00974630 12171705
0.00223822 -0.08800995 0.00974630 12763842
0.00223822 -0.08695995 0.00974630 12895428
0.00223822 -0.08590995 0.00974630 15329769
0.00223822 -0.08485995 0.00974630 14079702
0.00223862 -0.00940575 -0.00050000 13158600
0.00223862 -0.00940575 -0.00150000 13290186
0.00223935 -0.07726764 -0.00101195 11908533
0.00224598 -0.07928303 -0.00101501 11842740
0.00224650 -0.07122149 0.00061189 13750737
0.00226045 -0.03495995 -0.00089326 14474460
0.00226059 -0.07222918 0.00057789 14342874
0.00226127 -0.03495995 0.00089185 12434877
0.00227467 -0.07323687 0.00054390 12698049
0.00227484 -0.07985995 -0.00268927 14869218
0.00228869 -0.08335995 0.00541964 13290186
0.00228875 -0.07424457 0.00050991 14869218
0.00230284 -0.07525226 0.00047591 13290186
0.00230291 -0.01486941 -0.00150000 13553358
0.00230835 -0.03395995 -0.00071460 13750737
0.00230900 -0.03395995 0.00071348 14079702
0.00231692 -0.07625995 0.00044192 13948116
0.00233100 -0.07726764 0.00040792 16053492
0.00234509 -0.07827534 0.00037393 10263708
0.00235043 -0.12067952 -0.00104394 15198183
0.00235084 -0.12067952 0.00104325 14013909
0.00235625 -0.03295995 -0.00053595 13882323
0.00235674 -0.03295995 0.00053511 13487565
0.00235917 -0.07928303 0.00033994 14013909
0.00239033 -0.08035995 0.00532334 11119017
0.00239033 -0.08019328 0.00515667 13092807
0.00239033 -0.08072662 -0.00532334 14408667
0.00240414 -0.03195995 -0.00035730 14079702
0.00240447 -0.03195995 0.00035674 13882323
0.00245204 -0.03095995 -0.00017865 13158600
0.00245221 -0.03095995 0.00017837 14013909
0.00247569 -0.11909357 -0.00247487 14474460
0.00247569 -0.11909357 0.00247487 15198183
0.00247569 -0.11858886 -0.00247487 12040119
0.00247569 -0.11858886 0.00247487 11447982
0.00247569 -0.02406574 -0.00075000 13750737
0.00248592 -0.08331380 0.00003399 12895428
0.00248592 -0.07928303 0.00003399 13816530
0.00248592 -0.07827534 0.00003399 10724259
0.00248592 -0.07726764 0.00003399 12895428
0.00248592 -0.07625995 0.00003399 13421772
0.00248592 -0.07525226 0.00003399 14803425
0.00248592 -0.07424457 0.00003399 12566463
0.00248592 -0.07323687 0.00003399 12895428
0.00248592 -0.07222918 0.00003399 12829635
0.00248592 -0.07122149 0.00003399 12105912
0.00248592 -0.07021380 0.00003399 14803425
0.00248592 -0.06920611 0.00003399 13355979
0.00248592 -0.06819841 0.00003399 15263976
0.00248592 -0.06719072 0.00003399 13553358
0.00248592 -0.06618303 0.00003399 14408667
0.00248592 -0.06517534 0.00003399 16579836
0.00248592 -0.06416764 0.00003399 12632256
0.00248592 -0.06315995 0.00003399 14013909
0.00248592 -0.06215226 0.00003399 16777215
0.00248592 -0.06114457 0.00003399 14474460
0.00248592 -0.06013688 0.00003399 12829635
0.00248592 -0.05912918 0.00003399 13816530
0.00248592 -0.05812149 0.00003399 15527148
0.00248592 -0.05711380 0.00003399 12895428
0.00248592 -0.05610611 0.00003399 13290186
0.00248592 -0.05509841 0.00003399 13684944
0.00248592 -0.05409072 0.00003399 14013909
0.00248592 -0.05308303 0.00003399 13948116
0.00248592 -0.05207534 0.00003399 12763842
0.00248592 -0.05106764 0.00003399 14869218
0.00248592 -0.05005995 0.00003399 15000804
0.00248592 -0.04905226 0.00003399 13487565
0.00248592 -0.04804457 0.00003399 12961221
0.00248592 -0.04703688 0.00003399 10724259
0.00248592 -0.04602918 0.00003399 14540253
0.00248592 -0.04502149 0.00003399 15527148
0.00248592 -0.04401380 0.00003399 13027014
0.00248592 -0.04300611 0.00003399 13750737
0.00248592 -0.04199841 0.00003399 14474460
0.00248592 -0.04099072 0.00003399 13224393
0.00248592 -0.03998303 0.00003399 14540253
0.00248592 -0.03897534 0.00003399 13553358
0.00248592 -0.03796765 0.00003399 13092807
0.00248592 -0.03695995 0.00003399 15329769
0.00249332 -0.08435995 -0.00729556 15395562
0.00249994 -0.02995995 -0.00000000 13684944
0.00250000 -0.07928303 -0.00000000 12763842
0.00250000 -0.07827534 -0.00000000 14474460
0.00250000 -0.07726764 -0.00000000 12763842
0.00250000 -0.07625995 -0.00000000 12895428
0.00250000 -0.07525226 -0.00000000 13224393
0.00250000 -0.07424457 -0.00000000 11645361
0.00250000 -0.07323687 -0.00000000 13882323
0.00250000 -0.07222918 -0.00000000 13750737
0.00250000 -0.07122149 -0.00000000 14211288
0.00250000 -0.07021380 -0.00000000 12303291
0.00250000 -0.06920611 -0.00000000 10987431
0.00250000 -0.06819841 -0.00000000 14145495
0.00250000 -0.06719072 -0.00000000 11447982
0.00250000 -0.06618303 -0.00000000 13158600
0.00250000 -0.06517534 -0.00000000 11711154
0.00250000 -0.06416764 -0.00000000 13619151
0.00250000 -0.06315995 -0.00000000 13684944
0.00250000 -0.06215226 -0.00000000 13158600
0.00250000 -0.06114457 -0.00000000 12303291
0.00250000 -0.06013688 -0.00000000 11316396
0.00250000 -0.05912918 -0.00000000 11776947
0.00250000 -0.05812149 -0.00000000 14803425
0.00250000 -0.05711380 -0.00000000 13684944
0.00250000 -0.05610611 -0.00000000 13355979
0.00250000 -0.05509841 -0.00000000 13355979
0.00250000 -0.05409072 -0.00000000 14342874
0.00250000 -0.05308303 -0.00000000 13027014
0.00250000 -0.05207534 -0.00000000 11842740
0.00250000 -0.05106764 -0.00000000 14079702
0.00250000 -0.05005995 -0.00000000 13290186
0.00250000 -0.04905226 -0.00000000 15000804
0.00250000 -0.04804457 -0.00000000 14211288
0.00250000 -0.04703688 -0.00000000 14540253
0.00250000 -0.04602918 -0.00000000 13948116
0.00250000 -0.04502149 -0.00000000 12895428
0.00250000 -0.04401380 -0.00000000 12171705
0.00250000 -0.04300611 -0.00000000 15592941
0.00250000 -0.04199841 -0.00000000 15132390
0.00250000 -0.04099072 -0.00000000 14211288
0.00250000 -0.03998303 -0.00000000 14671839
0.00250000 -0.03897534 -0.00000000 10592673
0.00250000 -0.03796765 -0.00000000 13553358
0.00250000 -0.03695995 -0.00000000 13355979
0.00251597 -0.08435995 -0.00625648 13158600
0.00256407 -0.02715933 -0.00075000 13158600
0.00258179 -0.11798414 0.00201031 14803425
0.00258617 -0.02713723 -0.00083203 12632256
0.00259872 -0.01892174 0.00150000 11776947
0.00260280 -0.10735914 -0.00216755 13092807
0.00260295 -0.10839351 -0.00216741 13816530
0.00260310 -0.10942789 -0.00216726 15395562
0.00260324 -0.11046226 -0.00216712 12434877
0.00260339 -0.11149664 -0.00216697 12763842
0.00260353 -0.11253101 -0.00216683 13619151
0.00260368 -0.11356539 -0.00216668 14737632
0.00260382 -0.11459976 -0.00216654 11645361
0.00260383 -0.11563414 -0.00216551 14474460
0.00260383 -0.11563414 0.00216551 12500670
0.00260385 -0.11459976 0.00216549 13750737
0.00260388 -0.11356539 0.00216546 13158600
0.00260390 -0.11253101 0.00216544 12566463
0.00260393 -0.11149664 0.00216541 13684944
0.00260395 -0.11046226 0.00216539 14671839
0.00260398 -0.10942789 0.00216536 10329501
0.00261811 -0.00978455 -0.00050000 13158600
0.00261811 -0.00978455 0.00050000 12171705
0.00261811 -0.00978455 0.00150000 13487565
0.00262006 -0.08443495 0.00899131 11711154
0.00264436 -0.01876280 0.00150000 14342874
0.00264576 -0.01034021 0.00150000 13421772
0.00265059 -0.01397414 -0.00150000 13816530
0.00266893 -0.00982720 -0.00150000 13355979
0.00267928 -0.12067952 -0.00025004 12171705
0.00267968 -0.12067952 0.00024934 14540253
0.00269345 -0.01260153 0.00150000 14540253
0.00269666 -0.02278411 -0.00075000 13487565
0.00269917 -0.10839351 0.00202255 16053492
0.00276139 -0.10735914 0.00204630 11579568
0.00278151 -0.01306933 -0.00150000 13882323
0.00278947 -0.01224073 0.00015000 12566463
0.00282924 -0.02689417 -0.00112500 11974326
0.00285542 -0.01232998 0.00150000 12763842
0.00286707 -0.01430871 0.00150000 12895428
0.00291239 -0.01216503 -0.00075000 11382189
0.00291244 -0.01216452 -0.00150000 14408667
0.00295622 -0.01125134 -0.00150000 15724527
0.00296182 -0.02304927 -0.00075000 12763842
0.00296313 -0.11788414 0.00051105 11382189
0.00296494 -0.01107034 -0.00000000 14145495
0.00298432 -0.02607615 -0.00075000 12698049
0.00298454 -0.01026909 0.00050000 13027014
0.00298766 -0.10735914 -0.00124211 16448250
0.00298780 -0.10839351 -0.00124196 11513775
0.00298795 -0.10942789 -0.00124182 15066597
0.00298810 -0.11046226 -0.00124167 14013909
0.00298824 -0.11149664 -0.00124153 13224393
0.00298824 -0.11253101 -0.00124050 14408667
0.00298825 -0.11356539 -0.00123948 12632256
0.00298825 -0.11459976 -0.00123846 11974326
0.00298825 -0.11909357 -0.00123744 13158600
0.00298825 -0.11909357 0.00123744 11974326
0.00298825 -0.11858886 -0.00123744 11974326
0.00298825 -0.11858886 0.00123744 12434877
0.00298825 -0.11563414 -0.00123744 15263976
0.00298825 -0.11563414 0.00123744 10987431
0.00298827 -0.11459976 0.00123741 11382189
0.00298830 -0.11356539 0.00123739 13092807
0.00298832 -0.11253101 0.00123736 12763842
0.00299576 -0.01595308 0.00150000 11513775
0.00300000 -0.01034021 -0.00000000 13355979
0.00300000 -0.01033815 -0.00150000 14145495
0.00300023 -0.01034021 0.00150000 13882323
0.00300285 -0.08205995 0.00540035 13158600
0.00300578 -0.08435995 0.00867081 15592941
0.00301762 -0.10942789 0.00142763 13882323
0.00302904 -0.01403717 0.00150000 13355979
0.00304021 -0.11958971 0.00079390 15132390
0.00304690 -0.10735914 0.00161793 14013909
0.00305028 -0.01767405 0.00150000 14737632
0.00305057 -0.11046226 0.00126109 14277081
0.00307564 -0.07985995 0.00386807 12961221
0.00307985 -0.10839351 0.00145139 11908533
0.00308352 -0.11149664 0.00109455 13816530
0.00311639 -0.11563414 0.00092808 12105912
0.00311641 -0.11459976 0.00092805 16382457
0.00311644 -0.11356539 0.00092803 12566463
0.00311646 -0.11253101 0.00092800 12369084
0.00313873 -0.01792764 0.00150000 12500670
0.00314574 -0.11046226 0.00111830 12829635
0.00317724 -0.08159328 -0.00530899 12171705
0.00318292 -0.08439745 -0.00882380 14408667
0.00318427 -0.09985995 0.00916244 14737632
0.00319101 -0.01376562 0.00150000 12237498
0.00319806 -0.07985995 0.00203054 14079702
0.00320796 -0.10942789 0.00114206 12171705
0.00322610 -0.08484809 0.00945260 11250603
0.00322699 -0.02331444 -0.00075000 12961221
0.00324409 -0.08335995 0.00510946 14013909
0.00324472 -0.09955995 0.00945895 13224393
0.00324472 -0.09850995 0.00945895 12171705
0.00324472 -0.09745995 0.00945895 13158600
0.00324472 -0.09640995 0.00945895 12698049
0.00324472 -0.09535995 0.00945895 11908533
0.00324472 -0.09430995 0.00945895 10855845
0.00324472 -0.09325995 0.00945895 14408667
0.00324472 -0.09220995 0.00945895 14474460
0.00324472 -0.09115995 0.00945895 15263976
0.00324472 -0.09010995 0.00945895 12434877
0.00324472 -0.08905995 0.00945895 14869218
0.00324472 -0.08800995 0.00945895 13092807
0.00324472 -0.08695995 0.00945895 13092807
0.00324472 -0.08590995 0.00945895 12040119
0.00324472 -0.08485995 0.00945895 14145495
0.00324791 -0.08335995 -0.00510675 13355979
0.00325032 -0.08435995 0.00733432 12434877
0.00327018 -0.10735914 0.00116479 15132390
0.00327018 -0.10839351 0.00116581 13487565
0.00327450 -0.08450995 -0.00907745 14474460
0.00328589 -0.08145995 0.00501538 11711154
0.00328731 -0.07985995 0.00453360 13290186
0.00328908 -0.07985995 -0.00453232 12303291
0.00331537 -0.02640803 -0.00075000 13092807
0.00331708 -0.08435995 -0.00792281 15790320
0.00332751 -0.08212662 0.00514205 14408667
0.00333432 -0.02517691 -0.00075000 12237498
0.00333973 -0.08435995 -0.00688372 13027014
0.00335957 -0.02636384 -0.00091406 10790052
0.00337267 -0.11563414 0.00030936 13355979
0.00338305 -0.01304402 -0.00000000 13158600
0.00338305 -0.01304402 0.00030000 13619151
0.00338305 -0.01304402 0.00150000 12566463
0.00345124 -0.01958882 0.00150000 12040119
0.00345778 -0.02438001 -0.00075000 12434877
0.00345999 -0.07985995 -0.00267966 13027014
0.00346785 -0.10735914 0.00015939 12763842
0.00346786 -0.10839351 0.00016041 12105912
0.00346786 -0.10942789 0.00016143 12040119
0.00346786 -0.11046226 0.00016246 12829635
0.00346786 -0.11149664 0.00016348 10592673
0.00346786 -0.11253101 0.00016450 13882323
0.00346786 -0.11356539 0.00016552 12500670
0.00346787 -0.11459976 0.00016654 12237498
0.00348075 -0.08468198 0.00918459 11053224
0.00350080 -0.10735914 -0.00000818 15066597
0.00350080 -0.10839351 -0.00000716 15066597
0.00350080 -0.10942789 -0.00000613 13355979
0.00350080 -0.11046226 -0.00000511 13750737
0.00350081 -0.11149664 -0.00000409 12829635
0.00350081 -0.11253101 -0.00000307 14606046
0.00350081 -0.11356539 -0.00000204 13224393
0.00350081 -0.11459976 -0.00000102 12895428
0.00350081 -0.11909357 -0.00000000 11447982
0.00350081 -0.11858886 -0.00000000 13224393
0.00350081 -0.11808414 -0.00000000 13553358
0.00350081 -0.11563414 -0.00000000 14145495
0.00350936 -0.01630480 0.00150000 14211288
0.00351950 -0.09985995 -0.00900859 13355979
0.00355899 -0.08468198 -0.00915456 12632256
0.00358549 -0.08035995 0.00493500 15066597
0.00358549 -0.08035995 -0.00493500 14277081
0.00359669 -0.09985995 0.00900494 15000804
0.00368858 -0.01492971 0.00150000 13224393
0.00369835 -0.08435995 0.00620545 12763842
0.00369841 -0.08199328 -0.00512660 13290186
0.00369841 -0.08172662 -0.00512660 13158600
0.00371312 -0.02601028 -0.00112500 11974326
0.00390183 -0.08019328 0.00438535 11711154
0.00391798 -0.08485995 -0.00920052 13619151
0.00393233 -0.02154844 -0.00123000 12434877
0.00393714 -0.08585995 -0.00916618 14145495
0.00395630 -0.08685995 -0.00913184 12961221
0.00396711 -0.07985995 -0.00360118 13158600
0.00397546 -0.08785995 -0.00909750 14540253
0.00397664 -0.01384731 -0.00000000 15395562
0.00397664 -0.01384731 0.00045000 15527148
0.00397664 -0.01384731 0.00150000 13158600
0.00397829 -0.02256314 -0.00075000 12763842
0.00398418 -0.02149658 -0.00140000 13948116
0.00399463 -0.08885995 -0.00906316 15527148
0.00400468 -0.08472944 0.00901989 14277081
0.00401253 -0.01438662 0.00150000 14145495
0.00401379 -0.09965995 -0.00902883 10790052
0.00401379 -0.09857106 -0.00902883 11513775
0.00401379 -0.09748217 -0.00902883 15329769
0.00401379 -0.09639328 -0.00902883 12961221
0.00401379 -0.09530440 -0.00902883 13290186
0.00401379 -0.09421551 -0.00902883 11184810
0.00401379 -0.09312662 -0.00902883 13355979
0.00401379 -0.09203773 -0.00902883 12698049
0.00401379 -0.09094884 -0.00902883 12895428
0.00401379 -0.08985995 -0.00902883 14013909
0.00402417 -0.01636535 0.00150000 13421772
0.00406767 -0.08435995 0.00514883 11974326
0.00410202 -0.01798181 0.00150000 12303291
0.00411262 -0.08165995 0.00421280 16382457
0.00411878 -0.07985995 0.00370190 14277081
0.00412457 -0.09985995 0.00877940 12434877
0.00412727 -0.08335995 0.00439213 12500670
0.00414084 -0.08435995 -0.00855005 11974326
0.00416349 -0.08435995 -0.00751097 14671839
0.00416472 -0.08019328 -0.00386964 13421772
0.00416601 -0.08435995 0.00826863 11908533
0.00417450 -0.01411508 0.00150000 13882323
0.00417450 -0.01411508 -0.00000000 14211288
0.00417450 -0.01411508 0.00016667 12171705
0.00418614 -0.08435995 -0.00647189 13224393
0.00419650 -0.08484809 0.00906360 12434877
0.00419926 -0.02128150 -0.00075000 14935011
0.00420880 -0.08435995 -0.00543280 13421772
0.00421568 -0.09955995 0.00906797 13487565
0.00421568 -0.09850995 0.00906797 12632256
0.00421568 -0.09745995 0.00906797 13487565
0.00421568 -0.09640995 0.00906797 11250603
0.00421568 -0.09535995 0.00906797 13158600
0.00421568 -0.09430995 0.00906797 13027014
0.00421568 -0.09325995 0.00906797 11645361
0.00421568 -0.09220995 0.00906797 11908533
0.00421568 -0.09115995 0.00906797 14474460
0.00421568 -0.09010995 0.00906797 15329769
0.00421568 -0.08905995 0.00906797 9803157
0.00421568 -0.08800995 0.00906797 10724259
0.00421568 -0.08695995 0.00906797 12829635
0.00421568 -0.08590995 0.00906797 14737632
0.00421568 -0.08485995 0.00906797 11579568
0.00426318 -0.08090995 -0.00425617 13224393
0.00428852 -0.09857995 0.00903375 11513775
0.00428852 -0.09759995 0.00903375 13619151
0.00428852 -0.09661995 0.00903375 13158600
0.00428852 -0.09563995 0.00903375 14408667
0.00428852 -0.09465995 0.00903375 14211288
0.00428852 -0.09367995 0.00903375 12566463
0.00428852 -0.09269995 0.00903375 15132390
0.00428852 -0.09171995 0.00903375 12632256
0.00428852 -0.09073995 0.00903375 12303291
0.00428852 -0.08975995 0.00903375 11513775
0.00428852 -0.08877995 0.00903375 12566463
0.00428852 -0.08779995 0.00903375 13421772
0.00428852 -0.08681995 0.00903375 12040119
0.00428852 -0.08583995 0.00903375 13158600
0.00430175 -0.08335995 -0.00405236 13487565
0.00430367 -0.09958024 0.00900380 12632256
0.00430375 -0.02025590 0.00150000 12434877
0.00432384 -0.08072662 0.00391918 10855845
0.00432414 -0.08035995 -0.00391834 12237498
0.00434951 -0.08435995 0.00686985 13684944
0.00436130 -0.02394789 -0.00075000 12961221
0.00439889 -0.08335995 0.00412023 12961221
0.00441075 -0.08205995 0.00447947 13750737
0.00441075 -0.08165995 0.00447947 13158600
0.00444067 -0.01977909 0.00150000 14606046
0.00450862 -0.02309347 -0.00075000 14606046
0.00451230 -0.08435995 0.00703595 11842740
0.00451977 -0.08145995 -0.00409654 13027014
0.00453452 -0.07985995 0.00328605 14211288
0.00457022 -0.01465061 -0.00000000 13553358
0.00457022 -0.01465061 0.00060000 14803425
0.00457022 -0.01465061 0.00150000 13750737
0.00459701 -0.02512640 -0.00112500 14606046
0.00464514 -0.07985995 -0.00267004 11447982
0.00470775 -0.01712550 0.00150000 14935011
0.00474403 -0.08335995 -0.00344341 14671839
0.00479146 -0.02068930 -0.00138750 14803425
0.00481798 -0.02490543 -0.00075000 14079702
0.00483404 -0.01500763 0.00150000 11974326
0.00483692 -0.02488649 -0.00099107 12500670
0.00484468 -0.08185995 0.00433348 12566463
0.00484661 -0.08185995 -0.00404385 12763842
0.00491385 -0.08185995 0.00248347 12829635
0.00499475 -0.02207700 -0.00075000 12829635
0.00500766 -0.01671481 0.00150000 13948116
0.00501967 -0.09985995 0.00830017 11776947
0.00504452 -0.08199328 0.00380616 12763842
0.00504452 -0.08172662 0.00380616 14540253
0.00505015 -0.01735999 0.00150000 14606046
0.00506279 -0.08035995 -0.00290167 13355979
0.00506279 -0.08035995 0.00290167 13750737
0.00506948 -0.01836542 0.00150000 13816530
0.00507089 -0.08435995 -0.00774607 15198183
0.00509025 -0.08450995 -0.00819828 11974326
0.00509354 -0.08435995 -0.00670699 14737632
0.00511280 -0.08335995 0.00323938 14079702
0.00511619 -0.08435995 -0.00566791 13619151
0.00512091 -0.08484809 0.00857529 13421772
0.00513885 -0.08435995 -0.00462883 12698049
0.00514044 -0.09955995 0.00857764 12237498
0.00514044 -0.09850995 0.00857764 14145495
0.00514044 -0.09745995 0.00857764 13553358
0.00514044 -0.09640995 0.00857764 13027014
0.00514044 -0.09535995 0.00857764 13816530
0.00514044 -0.09430995 0.00857764 12105912
0.00514044 -0.09325995 0.00857764 10987431
0.00514044 -0.09220995 0.00857764 12105912
0.00514044 -0.09115995 0.00857764 12369084
0.00514044 -0.09010995 0.00857764 12895428
0.00514044 -0.08905995 0.00857764 13684944
0.00514044 -0.08800995 0.00857764 13816530
0.00514044 -0.08695995 0.00857764 14408667
0.00514044 -0.08590995 0.00857764 15263976
0.00514044 -0.08485995 0.00857764 14671839
0.00515627 -0.02092298 0.00150000 11579568
0.00516381 -0.01545390 -0.00000000 12171705
0.00516381 -0.01545390 0.00075000 15198183
0.00516381 -0.01545390 0.00150000 13027014
0.00517684 -0.09985995 -0.00820307 13290186
0.00520191 -0.02076404 0.00150000 13619151
0.00522772 -0.08109328 -0.00301323 11447982
0.00524435 -0.08159328 0.00327883 13355979
0.00525992 -0.02234217 -0.00075000 14277081
0.00531427 -0.08468198 0.00826019 12237498
0.00532625 -0.08435995 0.00786645 12303291
0.00534851 -0.08172662 -0.00309749 14277081
0.00535057 -0.08185995 0.00333251 13158600
0.00535905 -0.08435995 0.00682483 12369084
0.00538230 -0.09985009 0.00808143 12040119
0.00538455 -0.08468198 -0.00821455 15592941
0.00538934 -0.08435995 0.00586333 10987431
0.00540698 -0.08757010 0.00801659 12171705
0.00540904 -0.08654676 0.00801119 14013909
0.00541089 -0.09985995 0.00800633 15987699
0.00541089 -0.09883662 0.00800633 13355979
0.00541089 -0.09781328 0.00800633 11908533
0.00541089 -0.09678995 0.00800633 12763842
0.00541089 -0.09576662 0.00800633 12040119
0.00541089 -0.09474328 0.00800633 12500670
0.00541089 -0.09371995 0.00800633 12566463
0.00541089 -0.09269662 0.00800633 13684944
0.00541089 -0.09167328 0.00800633 12369084
0.00541089 -0.09064995 0.00800633 13553358
0.00541089 -0.08962662 0.00800633 12500670
0.00541089 -0.08860329 0.00800633 14013909
0.00541109 -0.08552343 0.00800579 12829635
0.00542467 -0.08435995 0.00474159 15198183
0.00543669 -0.02375638 -0.00075000 9868950
0.00547365 -0.08185995 -0.00314350 13290186
0.00551458 -0.08072662 -0.00244912 12566463
0.00556928 -0.02415413 -0.00075000 12303291
0.00562860 -0.08335995 -0.00222549 12369084
0.00563224 -0.08335995 0.00221442 11908533
0.00570186 -0.02402155 -0.00084375 10855845
0.00574525 -0.08485995 -0.00818487 13421772
0.00575686 -0.08585995 -0.00814730 10066329
0.00576846 -0.08685995 -0.00810972 12237498
0.00578007 -0.08785995 -0.00807215 11842740
0.00578635 -0.01886818 0.00150000 13421772
0.00579167 -0.09963995 -0.00803458 11447982
0.00579167 -0.09856195 -0.00803458 14145495
0.00579167 -0.09748395 -0.00803458 13421772
0.00579167 -0.09640595 -0.00803458 15461355
0.00579167 -0.09532795 -0.00803458 15000804
0.00579167 -0.09424995 -0.00803458 14935011
0.00579167 -0.09317195 -0.00803458 13355979
0.00579167 -0.09209395 -0.00803458 13224393
0.00579167 -0.09101595 -0.00803458 12369084
0.00579167 -0.08993795 -0.00803458 12829635
0.00579167 -0.08885995 -0.00803458 10395294
0.00580145 -0.08035995 -0.00188500 13224393
0.00580145 -0.08035995 -0.00062833 10461087
0.00580145 -0.08035995 0.00188500 12171705
0.00580154 -0.08235995 -0.00126143 14277081
0.00580281 -0.08340162 -0.00125758 11316396
0.00580316 -0.08072662 0.00063364 12303291
0.00580509 -0.08360995 -0.00000461 14803425
0.00580660 -0.08319328 0.00124605 12961221
0.00580660 -0.08145995 -0.00186908 14540253
0.00583444 -0.02388896 -0.00142500 14145495
0.00590327 -0.08205995 0.00204104 12040119
0.00590327 -0.08165995 0.00204104 13027014
0.00590515 -0.01957561 -0.00142500 13684944
0.00597555 -0.08172662 -0.00219714 14079702
0.00600879 -0.02159006 0.00150000 12566463
0.00600889 -0.09955995 0.00799332 13750737
0.00600889 -0.09850995 0.00799332 12303291
0.00600889 -0.09745995 0.00799332 13158600
0.00600889 -0.09640995 0.00799332 13027014
0.00600889 -0.09535995 0.00799332 13948116
0.00600889 -0.09430995 0.00799332 13421772
0.00600889 -0.09325995 0.00799332 13619151
0.00600889 -0.09220995 0.00799332 13553358
0.00600889 -0.09115995 0.00799332 12105912
0.00600889 -0.09010995 0.00799332 13421772
0.00600889 -0.08905995 0.00799332 10395294
0.00600889 -0.08800995 0.00799332 12829635
0.00600889 -0.08695995 0.00799332 13750737
0.00600889 -0.08590995 0.00799332 12105912
0.00600889 -0.08485995 0.00799332 12500670
0.00601076 -0.08435995 0.00269408 11184810
0.00601122 -0.01946954 -0.00150000 15987699
0.00601385 -0.08445995 -0.00724357 11974326
0.00602359 -0.08435995 -0.00590301 15263976
0.00603695 -0.01874902 0.00150000 12566463
0.00604191 -0.09985995 0.00755227 12105912
0.00604624 -0.08435995 -0.00486393 12632256
0.00610068 -0.08185995 -0.00224315 13684944
0.00610618 -0.08435995 0.00380473 12040119
0.00612899 -0.08165995 -0.00078511 12566463
0.00613749 -0.02328287 -0.00075000 13158600
0.00614858 -0.08468198 0.00765945 15724527
0.00615110 -0.08435995 0.00713388 12763842
0.00615312 -0.01679272 0.00150000 11842740
0.00615312 -0.01679272 -0.00000000 12434877
0.00615312 -0.01679272 0.00033333 12369084
0.00615312 -0.01679272 0.00050000 13487565
0.00617525 -0.08185995 -0.00202887 16053492
0.00617594 -0.08159328 0.00074929 12303291
0.00623698 -0.02079537 0.00150000 13355979
0.00623762 -0.08185995 -0.00090906 14803425
0.00624817 -0.08435995 0.00596502 13421772
0.00626915 -0.08172662 0.00103993 11908533
0.00629999 -0.08185995 0.00021075 13487565
0.00632701 -0.08435995 0.00616566 14145495
0.00635098 -0.01706048 0.00150000 12040119
0.00636236 -0.08185995 0.00133057 14277081
0.00640393 -0.01922232 0.00150000 10000536
0.00649570 -0.02191581 0.00150000 14277081
0.00651761 -0.08468198 0.00734800 13750737
0.00658574 -0.02313766 -0.00093750 13553358
0.00662647 -0.08468198 -0.00724998 13487565
0.00663027 -0.08569384 -0.00723070 10855845
0.00663408 -0.08670571 -0.00721142 13750737
0.00663568 -0.09985995 0.00707515 12632256
0.00663788 -0.08771757 -0.00719214 13553358
0.00664169 -0.08872944 -0.00717287 12566463
0.00664549 -0.08974130 -0.00715359 13948116
0.00664930 -0.09075317 -0.00713431 13290186
0.00665310 -0.09176503 -0.00711503 13882323
0.00665690 -0.09277690 -0.00709575 10790052
0.00666071 -0.09378876 -0.00707648 12434877
0.00666451 -0.09480063 -0.00705720 13948116
0.00666831 -0.09785995 -0.00703796 14408667
0.00666832 -0.09581249 -0.00703792 11382189
0.00667212 -0.09682436 -0.00701864 13619151
0.00667514 -0.09985995 -0.00700335 12961221
0.00667592 -0.09983995 -0.00699938 12500670
0.00667593 -0.09783622 -0.00699936 15132390
0.00671833 -0.02300508 -0.00135000 11842740
0.00681265 -0.01768527 -0.00000000 13619151
0.00681265 -0.01768527 0.00150000 11119017
0.00681265 -0.01768527 0.00016667 13553358
0.00687020 -0.09269995 0.00726638 13027014
0.00687020 -0.09171995 0.00726638 13750737
0.00687020 -0.09073995 0.00726638 14606046
0.00687020 -0.08975995 0.00726638 12895428
0.00687020 -0.08877995 0.00726638 13948116
0.00687020 -0.08779995 0.00726638 12829635
0.00687020 -0.08681995 0.00726638 11579568
0.00687020 -0.08583995 0.00726638 13224393
0.00690887 -0.09971210 0.00701767 13027014
0.00690894 -0.09663110 0.00701716 12105912
0.00690902 -0.09355009 0.00701666 12763842
0.00690975 -0.09868848 0.00701197 13290186
0.00690983 -0.09560748 0.00701147 13092807
0.00691064 -0.09766486 0.00700628 10526880
0.00691071 -0.09458386 0.00700578 14342874
0.00692189 -0.08435995 0.00457551 12303291
0.00693099 -0.08435995 -0.00613812 12632256
0.00693292 -0.08435995 -0.00320381 13027014
0.00700335 -0.09985995 0.00667514 10592673
0.00700441 -0.01913263 0.00150000 12763842
0.00701864 -0.09682436 0.00667212 13750737
0.00703792 -0.09581249 0.00666832 13619151
0.00703796 -0.09981995 0.00666831 13355979
0.00703796 -0.09785995 0.00666831 11974326
0.00704080 -0.08435995 -0.00221080 12237498
0.00705720 -0.09480063 0.00666451 12895428
0.00707026 -0.02203021 0.00075000 13750737
0.00707026 -0.02203021 0.00150000 10592673
0.00707107 -0.02128102 0.00150000 14013909
0.00707187 -0.01903024 -0.00150000 12040119
0.00707648 -0.09378876 0.00666071 11513775
0.00707654 -0.09685995 0.00666070 12895428
0.00709575 -0.09277690 0.00665690 12434877
0.00710063 -0.08435995 -0.00326992 11250603
0.00711503 -0.09176503 0.00665310 15921906
0.00712564 -0.08435995 0.00200879 14803425
0.00712639 -0.08435995 0.00550985 11776947
0.00713431 -0.09075317 0.00664930 12303291
0.00715359 -0.08974130 0.00664549 12961221
0.00716834 -0.08439745 -0.00605017 12566463
0.00717010 -0.08435995 0.00406359 13158600
0.00717287 -0.08872944 0.00664169 14606046
0.00718216 -0.08435995 0.00621817 15132390
0.00719214 -0.08771757 0.00663788 12763842
0.00721142 -0.08670571 0.00663408 13553358
0.00723070 -0.08569384 0.00663027 13684944
0.00724102 -0.08435995 0.00391733 14013909
0.00724998 -0.08468198 0.00662647 11711154
0.00731022 -0.01884936 0.00150000 13882323
0.00739698 -0.08435995 -0.00426898 12500670
0.00743178 -0.01993051 0.00150000 10592673
0.00747219 -0.01857781 0.00150000 13224393
0.00747219 -0.01857781 -0.00000000 12500670
0.00747219 -0.01857781 0.00016667 13290186
0.00753815 -0.01866707 -0.00000000 14803425
0.00753815 -0.01866707 0.00135000 13158600
0.00755227 -0.09985995 -0.00604192 13355979
0.00759211 -0.08681995 0.00650844 14606046
0.00759211 -0.08583995 0.00650844 13158600
0.00760221 -0.02212120 -0.00075000 13684944
0.00760671 -0.08468198 0.00621371 13355979
0.00761617 -0.09985009 0.00602268 11974326
0.00761646 -0.09882676 0.00601690 14737632
0.00761649 -0.09574691 0.00601632 12698049
0.00761652 -0.09266705 0.00601574 14540253
0.00761655 -0.08958719 0.00601516 12303291
0.00761675 -0.09780343 0.00601113 13224393
0.00761678 -0.09472357 0.00601055 14606046
0.00761680 -0.09164372 0.00600996 13027014
0.00761683 -0.08856386 0.00600938 12895428
0.00761700 -0.09985995 0.00600593 12566463
0.00761703 -0.09678009 0.00600535 11842740
0.00761706 -0.09370024 0.00600477 13224393
0.00761709 -0.09062038 0.00600419 13027014
0.00761712 -0.08754024 0.00600363 13684944
0.00765945 -0.08468198 -0.00614858 14803425
0.00773479 -0.02198861 -0.00121875 14013909
0.00786104 -0.08435995 -0.00533414 12040119
0.00799332 -0.09955995 -0.00600889 13553358
0.00799332 -0.09850995 -0.00600889 14737632
0.00799332 -0.09745995 -0.00600889 13224393
0.00799332 -0.09640995 -0.00600889 13158600
0.00799332 -0.09535995 -0.00600889 12829635
0.00799332 -0.09430995 -0.00600889 13882323
0.00799332 -0.09325995 -0.00600889 14211288
0.00799332 -0.09220995 -0.00600889 15000804
0.00799332 -0.09115995 -0.00600889 14606046
0.00799332 -0.09010995 -0.00600889 13421772
0.00799332 -0.08905995 -0.00600889 13948116
0.00799332 -0.08800995 -0.00600889 14540253
0.00799332 -0.08695995 -0.00600889 14342874
0.00799332 -0.08590995 -0.00600889 15066597
0.00799332 -0.08485995 -0.00600889 12763842
0.00803458 -0.09963995 0.00579167 14408667
0.00803458 -0.09856195 0.00579167 13158600
0.00803458 -0.09748395 0.00579167 13948116
0.00803458 -0.09640595 0.00579167 11776947
0.00803458 -0.09532795 0.00579167 11908533
0.00803458 -0.09424995 0.00579167 13158600
0.00803458 -0.09317195 0.00579167 16382457
0.00803458 -0.09209395 0.00579167 13421772
0.00803458 -0.09101595 0.00579167 15724527
0.00803458 -0.08993795 0.00579167 14869218
0.00803458 -0.08885995 0.00579167 9539985
0.00803849 -0.08435995 -0.00324698 12237498
0.00807215 -0.08785995 0.00578007 14342874
0.00807998 -0.09985995 0.00531558 13290186
0.00809203 -0.08435995 0.00216216 12895428
0.00810972 -0.08685995 0.00576846 13553358
0.00813173 -0.01947036 0.00016667 14935011
0.00813173 -0.01947036 0.00116667 13619151
0.00813173 -0.01947036 0.00150000 14408667
0.00813254 -0.02159087 -0.00150000 13750737
0.00813254 -0.01946954 -0.00150000 13092807
0.00813254 -0.01946954 -0.00000000 13619151
0.00814730 -0.08585995 0.00575686 14342874
0.00815950 -0.08435995 0.00473380 14211288
0.00816477 -0.08435995 0.00325753 13619151
0.00818487 -0.08485995 0.00574525 13027014
0.00819828 -0.08450995 0.00509025 14474460
0.00821455 -0.08468198 0.00538455 13882323
0.00823084 -0.08779995 0.00567920 15198183
0.00823084 -0.08681995 0.00567920 13750737
0.00823084 -0.08583995 0.00567920 13816530
0.00826019 -0.08468198 -0.00531427 11776947
0.00826451 -0.08435995 -0.00417310 13158600
0.00827801 -0.09985995 0.00505614 12500670
0.00828861 -0.09480063 0.00505160 11382189
0.00829376 -0.02028754 0.00075000 15198183
0.00829376 -0.02028754 0.00150000 16053492
0.00830017 -0.09985995 -0.00501967 13355979
0.00830668 -0.09378876 0.00504387 13027014
0.00832474 -0.09277690 0.00503615 13355979
0.00834281 -0.09176503 0.00502842 13092807
0.00836087 -0.09075317 0.00502069 12434877
0.00837894 -0.08974130 0.00501296 15921906
0.00837904 -0.09975995 0.00501291 13553358
0.00837904 -0.09853495 0.00501291 12303291
0.00837904 -0.09730995 0.00501291 15658734
0.00837904 -0.09608495 0.00501291 14342874
0.00837904 -0.09485995 0.00501291 15592941
0.00839701 -0.08872944 0.00500523 13882323
0.00841092 -0.08435995 -0.00217525 13027014
0.00845578 -0.02110475 -0.00000000 13750737
0.00845579 -0.02110474 0.00075000 11645361
0.00845580 -0.02110472 0.00150000 13421772
0.00857185 -0.02053021 -0.00000000 14079702
0.00857185 -0.02053020 -0.00150000 15000804
0.00857764 -0.09955995 -0.00514044 13224393
0.00857764 -0.09850995 -0.00514044 14013909
0.00857764 -0.09745995 -0.00514044 12434877
0.00857764 -0.09640995 -0.00514044 14803425
0.00857764 -0.09535995 -0.00514044 14211288
0.00857764 -0.09430995 -0.00514044 11974326
0.00857764 -0.09325995 -0.00514044 11119017
0.00857764 -0.09220995 -0.00514044 12369084
0.00857764 -0.09115995 -0.00514044 13882323
0.00857764 -0.09010995 -0.00514044 13882323
0.00857764 -0.08905995 -0.00514044 14474460
0.00857764 -0.08800995 -0.00514044 15790320
0.00857764 -0.08695995 -0.00514044 14342874
0.00857764 -0.08590995 -0.00514044 14211288
0.00857764 -0.08485995 -0.00514044 10526880
0.00876117 -0.09985995 0.00416315 15790320
0.00877044 -0.08468198 -0.00442173 11447982
0.00877941 -0.09985995 -0.00412457 14145495
0.00885704 -0.08974130 0.00410966 12369084
0.00887419 -0.08872944 0.00410008 13882323
0.00889135 -0.08771757 0.00409051 12434877
0.00890851 -0.08670571 0.00408093 13553358
0.00892567 -0.08569384 0.00407135 14803425
0.00894283 -0.08468198 0.00406178 13092807
0.00900241 -0.08468198 -0.00392796 16645629
0.00901268 -0.08435995 0.00172503 11119017
0.00901396 -0.08435995 0.00026073 11645361
0.00902883 -0.09965995 0.00401379 11974326
0.00902883 -0.09857106 0.00401379 11974326
0.00902883 -0.09748217 0.00401379 13684944
0.00902883 -0.09639328 0.00401379 13290186
0.00902883 -0.09530440 0.00401379 16119285
0.00902883 -0.09421551 0.00401379 13619151
0.00902883 -0.09312662 0.00401379 13948116
0.00902883 -0.09203773 0.00401379 11711154
0.00902883 -0.09094884 0.00401379 12895428
0.00902883 -0.08985995 0.00401379 12763842
0.00903375 -0.08485995 -0.00428852 13553358
0.00906316 -0.08885995 0.00399463 11711154
0.00906797 -0.09955995 -0.00421568 14013909
0.00906797 -0.09850995 -0.00421568 13158600
0.00906797 -0.09745995 -0.00421568 13355979
0.00906797 -0.09640995 -0.00421568 14671839
0.00906797 -0.09535995 -0.00421568 13816530
0.00906797 -0.09430995 -0.00421568 13092807
0.00906797 -0.09325995 -0.00421568 12632256
0.00906797 -0.09220995 -0.00421568 13882323
0.00906797 -0.09115995 -0.00421568 14540253
0.00906797 -0.09010995 -0.00421568 14935011
0.00906797 -0.08905995 -0.00421568 12369084
0.00906797 -0.08800995 -0.00421568 13158600
0.00906797 -0.08695995 -0.00421568 15527148
0.00906797 -0.08590995 -0.00421568 15000804
0.00906797 -0.08485995 -0.00421568 12369084
0.00907145 -0.08435995 -0.00185102 13816530
0.00907745 -0.08450995 0.00327450 16777215
0.00909750 -0.08785995 0.00397546 13487565
0.00909774 -0.08443495 0.00222460 15132390
0.00910014 -0.09985995 0.00335820 13355979
0.00911626 -0.08445995 -0.00265704 13421772
0.00913184 -0.08685995 0.00395630 14803425
0.00914835 -0.09985995 0.00322456 12763842
0.00915455 -0.08468198 0.00355899 13355979
0.00915579 -0.08435995 -0.00003179 13619151
0.00916244 -0.09985995 -0.00318428 10855845
0.00916618 -0.08585995 0.00393714 14935011
0.00918459 -0.08468198 -0.00348075 15263976
0.00920051 -0.08485995 0.00391798 14935011
0.00927022 -0.08771757 0.00313870 13355979
0.00928628 -0.08670571 0.00312738 13421772
0.00930235 -0.08569384 0.00311606 15263976
0.00931841 -0.08468198 0.00310475 11382189
0.00943529 -0.09985995 0.00225063 13487565
0.00945895 -0.09955995 -0.00324472 11974326
0.00945895 -0.09850995 -0.00324472 11645361
0.00945895 -0.09745995 -0.00324472 12500670
0.00945895 -0.09640995 -0.00324472 13224393
0.00945895 -0.09535995 -0.00324472 14474460
0.00945895 -0.09430995 -0.00324472 13684944
0.00945895 -0.09325995 -0.00324472 14474460
0.00945895 -0.09220995 -0.00324472 13421772
0.00945895 -0.09115995 -0.00324472 12303291
0.00945895 -0.09010995 -0.00324472 12763842
0.00945895 -0.08905995 -0.00324472 15198183
0.00945895 -0.08800995 -0.00324472 12566463
0.00945895 -0.08695995 -0.00324472 13487565
0.00945895 -0.08590995 -0.00324472 11250603
0.00945895 -0.08485995 -0.00324472 11842740
0.00946321 -0.09961995 0.00300274 14145495
0.00946321 -0.09855086 0.00300274 13684944
0.00946321 -0.09748177 0.00300274 11974326
0.00946321 -0.09641268 0.00300274 10658466
0.00946321 -0.09534359 0.00300274 13355979
0.00946321 -0.09427450 0.00300274 12040119
0.00946321 -0.09320541 0.00300274 12961221
0.00946321 -0.09213631 0.00300274 11711154
0.00946321 -0.09106722 0.00300274 15527148
0.00946321 -0.08999813 0.00300274 14540253
0.00946321 -0.08892904 0.00300274 14079702
0.00946321 -0.08785995 0.00300274 14079702
0.00947506 -0.09985995 -0.00206661 11908533
0.00949811 -0.08468198 -0.00250163 9342606
0.00958296 -0.08877995 0.00285777 12303291
0.00958296 -0.08779995 0.00285777 14474460
0.00958296 -0.08681995 0.00285777 14342874
0.00958296 -0.08583995 0.00285777 11119017
0.00959190 -0.08468198 0.00211370 13224393
0.00961886 -0.09985995 0.00125204 13355979
0.00962427 -0.09985995 -0.00120971 13355979
0.00969564 -0.09963995 0.00202300 11776947
0.00969564 -0.09856195 0.00202300 12500670
0.00969564 -0.09748395 0.00202300 14277081
0.00969564 -0.09640595 0.00202300 12105912
0.00969564 -0.09532795 0.00202300 12105912
0.00969564 -0.09424995 0.00202300 10658466
0.00969564 -0.09317195 0.00202300 14079702
0.00969564 -0.09209395 0.00202300 14474460
0.00969564 -0.09101595 0.00202300 13882323
0.00969564 -0.08993795 0.00202300 11974326
0.00969564 -0.08885995 0.00202300 12829635
0.00969704 -0.09985995 0.00023974 14013909
0.00969800 -0.09985995 -0.00019708 16250871
0.00970757 -0.08468198 -0.00149510 13816530
0.00974630 -0.09955995 -0.00223822 12500670
0.00974630 -0.09850995 -0.00223822 13027014
0.00974630 -0.09745995 -0.00223822 13027014
0.00974630 -0.09640995 -0.00223822 14408667
0.00974630 -0.09535995 -0.00223822 12303291
0.00974630 -0.09430995 -0.00223822 13158600
0.00974630 -0.09325995 -0.00223822 13027014
0.00974630 -0.09220995 -0.00223822 12566463
0.00974630 -0.09115995 -0.00223822 13948116
0.00974630 -0.09010995 -0.00223822 12171705
0.00974630 -0.08905995 -0.00223822 11119017
0.00974630 -0.08800995 -0.00223822 14079702
0.00974630 -0.08695995 -0.00223822 13421772
0.00974630 -0.08590995 -0.00223822 12895428
0.00974630 -0.08485995 -0.00223822 14869218
0.00976030 -0.08468198 0.00109949 11645361
0.00981067 -0.08468198 -0.00047220 12632256
0.00982176 -0.08468198 0.00007324 10658466
0.00982918 -0.09955995 0.00184042 11908533
0.00982918 -0.09857995 0.00184042 15790320
0.00982918 -0.09759995 0.00184042 13750737
0.00982918 -0.09661995 0.00184042 12040119
0.00982918 -0.09563995 0.00184042 14211288
0.00982918 -0.09465995 0.00184042 13487565
0.00982918 -0.09367995 0.00184042 13158600
0.00982918 -0.09269995 0.00184042 12566463
0.00982918 -0.09171995 0.00184042 12500670
0.00982918 -0.09073995 0.00184042 12566463
0.00982918 -0.08975995 0.00184042 11053224
0.00982918 -0.08877995 0.00184042 11974326
0.00982918 -0.08779995 0.00184042 13882323
0.00982918 -0.08681995 0.00184042 15527148
0.00982918 -0.08583995 0.00184042 14540253
0.00992687 -0.09955995 -0.00120719 14079702
0.00992687 -0.09850995 -0.00120719 14079702
0.00992687 -0.09745995 -0.00120719 12500670
0.00992687 -0.09640995 -0.00120719 14013909
0.00992687 -0.09535995 -0.00120719 10921638
0.00992687 -0.09430995 -0.00120719 12303291
0.00992687 -0.09325995 -0.00120719 11645361
0.00992687 -0.09220995 -0.00120719 15066597
0.00992687 -0.09115995 -0.00120719 12566463
0.00992687 -0.09010995 -0.00120719 13816530
0.00992687 -0.08905995 -0.00120719 11447982
0.00992687 -0.08800995 -0.00120719 15592941
0.00992687 -0.08695995 -0.00120719 12961221
0.00992687 -0.08590995 -0.00120719 13487565
0.00992687 -0.08485995 -0.00120719 14803425
0.00996771 -0.09955995 0.00080291 12632256
0.00996771 -0.09857995 0.00080291 13092807
0.00996771 -0.09759995 0.00080291 11842740
0.00996771 -0.09661995 0.00080291 13816530
0.00996771 -0.09563995 0.00080291 13421772
0.00996771 -0.09465995 0.00080291 12040119
0.00996771 -0.09367995 0.00080291 15461355
0.00996771 -0.09269995 0.00080291 11908533
0.00996771 -0.09171995 0.00080291 12895428
0.00996771 -0.09073995 0.00080291 12698049
0.00996771 -0.08975995 0.00080291 14474460
0.00996771 -0.08877995 0.00080291 14079702
0.00996771 -0.08779995 0.00080291 15790320
0.00996771 -0.08681995 0.00080291 11645361
0.00996771 -0.08583995 0.00080291 13948116
0.00999867 -0.09955995 -0.00016294 12237498
0.00999867 -0.09850995 -0.00016294 13421772
0.00999867 -0.09745995 -0.00016294 10987431
0.00999867 -0.09640995 -0.00016294 12829635
0.00999867 -0.09535995 -0.00016294 14408667
0.00999867 -0.09430995 -0.00016294 11974326
0.00999867 -0.09325995 -0.00016294 14935011
0.00999867 -0.09220995 -0.00016294 11842740
0.00999867 -0.09115995 -0.00016294 12171705
0.00999867 -0.09010995 -0.00016294 15592941
0.00999867 -0.08905995 -0.00016294 14869218
0.00999867 -0.08800995 -0.00016294 14079702
0.00999867 -0.08695995 -0.00016294 10526880
0.00999867 -0.08590995 -0.00016294 12237498
0.00999867 -0.08485995 -0.00016294 11711154
-0.01199841 -0.09955995 0.00019553 12763842
-0.01399814 -0.09955995 0.00022811 14079702
-0.01599788 -0.09955995 0.00026070 11579568
-0.01799761 -0.09955995 0.00029329 13092807
-0.01999734 -0.09955995 0.00032588 14013909
-0.01199841 -0.09850995 0.00019553 13750737
-0.01399814 -0.09850995 0.00022811 14079702
-0.01599788 -0.09850995 0.00026070 11184810
-0.01799761 -0.09850995 0.00029329 11250603
-0.01999734 -0.09850995 0.00032588 13158600
-0.01199841 -0.09745995 0.00019553 13421772
-0.01399814 -0.09745995 0.00022811 14737632
-0.01599788 -0.09745995 0.00026070 13421772
-0.01799761 -0.09745995 0.00029329 14671839
-0.01999734 -0.09745995 0.00032588 11382189
-0.01199841 -0.09640995 0.00019553 13882323
-0.01399814 -0.09640995 0.00022811 13224393
-0.01599788 -0.09640995 0.00026070 13027014
-0.01799761 -0.09640995 0.00029329 12829635
-0.01999734 -0.09640995 0.00032588 12698049
-0.01199841 -0.09535995 0.00019553 15592941
-0.01399814 -0.09535995 0.00022811 13158600
-0.01599788 -0.09535995 0.00026070 14935011
-0.01799761 -0.09535995 0.00029329 13619151
-0.01999734 -0.09535995 0.00032588 11645361
-0.01199841 -0.09430995 0.00019553 12434877
-0.01399814 -0.09430995 0.00022811 11711154
-0.01599788 -0.09430995 0.00026070 13816530
-0.01799761 -0.09430995 0.00029329 13027014
-0.01999734 -0.09430995 0.00032588 12040119
-0.01199841 -0.09325995 0.00019553 11908533
-0.01399814 -0.09325995 0.00022811 13619151
-0.01599788 -0.09325995 0.00026070 14277081
-0.01799761 -0.09325995 0.00029329 14342874
-0.01999734 -0.09325995 0.00032588 11119017
-0.01199841 -0.09220995 0.00019553 13224393
-0.01399814 -0.09220995 0.00022811 13750737
-0.01599788 -0.09220995 0.00026070 11645361
-0.01799761 -0.09220995 0.00029329 10855845
-0.01999734 -0.09220995 0.00032588 11316396
-0.01199841 -0.09115995 0.00019553 13290186
-0.01399814 -0.09115995 0.00022811 14935011
-0.01599788 -0.09115995 0.00026070 11645361
-0.01799761 -0.09115995 0.00029329 14540253
-0.01999734 -0.09115995 0.00032588 13421772
-0.01199841 -0.09010995 0.00019553 13684944
-0.01399814 -0.09010995 0.00022811 9605778
-0.01599788 -0.09010995 0.00026070 13290186
-0.01799761 -0.09010995 0.00029329 12566463
-0.01999734 -0.09010995 0.00032588 14408667
-0.01199841 -0.08905995 0.00019553 12698049
-0.01399814 -0.08905995 0.00022811 11645361
-0.01599788 -0.08905995 0.00026070 12632256
-0.01799761 -0.08905995 0.00029329 15066597
-0.01999734 -0.08905995 0.00032588 11447982
-0.01199841 -0.08800995 0.00019553 14079702
-0.01399814 -0.08800995 0.00022811 13948116
-0.01599788 -0.08800995 0.00026070 12105912
-0.01799761 -0.08800995 0.00029329 13487565
-0.01999734 -0.08800995 0.00032588 12895428
-0.01199841 -0.08695995 0.00019553 13684944
-0.01399814 -0.08695995 0.00022811 12829635
-0.01599788 -0.08695995 0.00026070 11447982
-0.01799761 -0.08695995 0.00029329 12961221
-0.01999734 -0.08695995 0.00032588 12698049
-0.01199841 -0.08590995 0.00019553 12369084
-0.01399814 -0.08590995 0.00022811 15132390
-0.01599788 -0.08590995 0.00026070 13290186
-0.01799761 -0.08590995 0.00029329 15856113
-0.01999734 -0.08590995 0.00032588 12500670
-0.01199841 -0.08485995 0.00019553 14079702
-0.01399814 -0.08485995 0.00022811 13355979
-0.01599788 -0.08485995 0.00026070 14474460
-0.01799761 -0.08485995 0.00029329 14079702
-0.01999734 -0.08485995 0.00032588 13158600
-0.01198425 -0.08484809 0.00017663 12632256
-0.01398163 -0.08484809 0.00020607 13027014
-0.01597900 -0.08484809 0.00023551 14540253
-0.01797638 -0.08484809 0.00026495 12895428
-0.01997376 -0.08484809 0.00029439 12895428
-0.01196126 -0.09955995 -0.00096349 13619151
-0.01395480 -0.09955995 -0.00112407 15461355
-0.01594834 -0.09955995 -0.00128466 13092807
-0.01794189 -0.09955995 -0.00144524 13619151
-0.01993543 -0.09955995 -0.00160582 13750737
-0.01196126 -0.09857995 -0.00096349 12303291
-0.01395480 -0.09857995 -0.00112407 12632256
-0.01594834 -0.09857995 -0.00128466 12632256
-0.01794189 -0.09857995 -0.00144524 14474460
-0.01993543 -0.09857995 -0.00160582 13290186
-0.01196126 -0.09759995 -0.00096349 11382189
-0.01395480 -0.09759995 -0.00112407 12829635
-0.01594834 -0.09759995 -0.00128466 13882323
-0.01794189 -0.09759995 -0.00144524 11776947
-0.01993543 -0.09759995 -0.00160582 11447982
-0.01196126 -0.09661995 -0.00096349 14474460
-0.01395480 -0.09661995 -0.00112407 12434877
-0.01594834 -0.09661995 -0.00128466 13027014
-0.01794189 -0.09661995 -0.00144524 12040119
-0.01993543 -0.09661995 -0.00160582 13421772
-0.01196126 -0.09563995 -0.00096349 13816530
-0.01395480 -0.09563995 -0.00112407 13421772
-0.01594834 -0.09563995 -0.00128466 14474460
-0.01794189 -0.09563995 -0.00144524 14277081
-0.01993543 -0.09563995 -0.00160582 12961221
-0.01196126 -0.09465995 -0.00096349 13027014
-0.01395480 -0.09465995 -0.00112407 14013909
-0.01594834 -0.09465995 -0.00128466 11579568
-0.01794189 -0.09465995 -0.00144524 14474460
-0.01993543 -0.09465995 -0.00160582 13224393
-0.01196126 -0.09367995 -0.00096349 13487565
-0.01395480 -0.09367995 -0.00112407 12829635
-0.01594834 -0.09367995 -0.00128466 14803425
-0.01794189 -0.09367995 -0.00144524 13487565
-0.01993543 -0.09367995 -0.00160582 11250603
-0.01196126 -0.09269995 -0.00096349 13027014
-0.01395480 -0.09269995 -0.00112407 11316396
-0.01594834 -0.09269995 -0.00128466 13948116
-0.01794189 -0.09269995 -0.00144524 13882323
-0.01993543 -0.09269995 -0.00160582 13158600
-0.01196126 -0.09171995 -0.00096349 12566463
-0.01395480 -0.09171995 -0.00112407 10855845
-0.01594834 -0.09171995 -0.00128466 13750737
-0.01794189 -0.09171995 -0.00144524 14671839
-0.01993543 -0.09171995 -0.00160582 10921638
-0.01196126 -0.09073995 -0.00096349 15527148
-0.01395480 -0.09073995 -0.00112407 12961221
-0.01594834 -0.09073995 -0.00128466 13027014
-0.01794189 -0.09073995 -0.00144524 12434877
-0.01993543 -0.09073995 -0.00160582 12961221
-0.01196126 -0.08975995 -0.00096349 13816530
-0.01395480 -0.08975995 -0.00112407 12632256
-0.01594834 -0.08975995 -0.00128466 13619151
-0.01794189 -0.08975995 -0.00144524 14079702
